# .PCD v0.7 - Point Cloud Data file format
VERSION 0.7
FIELDS x y z
SIZE 4 4 4
TYPE F F F
COUNT 1 1 1
WIDTH 1431
HEIGHT 1
VIEWPOINT 0 0 0 1 0 0 0
POINTS 1431
DATA ascii
1.4609418 0.58094949 0.0018735708
1.4726021 0.46868572 0.0039503649
1.4606506 0.66176325 0.0035130517
1.4927746 0.050279152 0.0033699933
1.4552494 0.76402336 0.0036559068
1.4692864 0.51955825 0.0037719121
1.4711599 0.49073949 0.0036550905
1.4713305 0.48448044 0.0038084819
1.4710827 0.48151565 0.0036747509
1.4709004 0.48500469 0.0036903077
1.4175725 1.4270693 0.0033356119
1.4707292 0.43686867 0.0026853259
1.4849782 0.20704341 0.0033989153
1.4704868 0.44200191 0.0026906559
1.4161533 1.5091109 0.0049348208
1.4572229 0.72990435 0.0037008696
1.480728 0.36292958 0.0047080806
1.4660608 0.53965437 0.0029961187
1.4801177 0.3736175 0.0047026644
1.4843291 0.17383538 0.002620104
1.4627243 0.54892015 0.0019108404
1.4856254 0.21677406 0.003783281
1.4770883 0.34641048 0.002761299
1.4817808 0.24891746 0.0030596075
1.4178191 1.4215051 0.0033340238
1.4780856 0.38946024 0.0040994599
1.4357029 0.2734035 0.0019644909
1.4471303 0.85661697 0.0024685808
1.4562769 0.69718432 0.0026374918
1.4659861 0.53173769 0.0028099527
1.4490539 0.87035245 0.0035479658
1.4695793 0.52675056 0.0040333085
1.4210917 1.1040845 0.0027951959
1.500813 0.13158704 0.0068184366
1.4643624 0.60737461 0.0037855173
1.485543 0.26041996 0.004473181
1.4129447 1.5441889 0.0053705089
1.474177 0.40719113 0.0033279613
1.4443324 1.07941 0.0041558063
1.3685553 2.4048367 0.0059927278
1.4642327 0.47607923 0.0023821043
1.4951528 0.29961446 0.0058865319
1.4646417 0.84977394 0.0051986082
1.4728957 0.47955668 0.0042356509
1.4612845 0.60653794 0.0025970126
1.47866 0.19944768 0.0020640173
1.4569 0.70321894 0.0029504979
1.4835706 0.31994638 0.0038475383
1.4368839 0.9588505 0.0026405978
1.485274 0.26358923 0.0044392138
1.4726212 0.39071715 0.0024757113
1.4120971 1.6726242 0.0075984146
1.490616 0.12154572 0.0030860947
1.3885683 2.0682542 0.007146528
1.4380298 1.0314244 0.0027048059
1.4751033 0.40812054 0.0036663655
1.4485137 0.8405112 0.0035722619
1.4520595 0.76930261 0.0025018798
1.4792995 0.45974275 0.0059354696
1.4606903 0.5756641 0.0022639192
1.4596277 0.62774736 0.0023829238
1.4697937 0.56610781 0.0034514063
1.4542608 0.90130705 0.0037198639
1.4627191 0.44774947 0.0025151109
1.484706 0.31576982 0.0051399833
1.479318 0.35212103 0.0032898311
1.4791188 0.29896042 0.0030237625
1.4716012 0.39066607 0.0021230888
1.4059269 1.7017585 0.0055244681
1.4817696 0.26307303 0.0033210786
1.4752257 0.63753951 0.0054768939
1.4854254 0.29199174 0.0049725911
1.4852921 0.20610459 0.0034906035
1.4363146 1.1106042 0.0038461862
1.3989422 1.8619505 0.0064094155
1.408897 1.6668774 0.0058816737
1.4359663 1.0619688 0.0030374019
1.4722693 0.495763 0.004346549
1.4662292 0.50126672 0.0022838465
1.4743685 0.35905579 0.0025239005
1.4666203 0.50927991 0.0026139601
1.4570249 0.7309745 0.0036396359
1.483682 0.21691325 0.0031328534
1.4823607 0.26341411 0.003484128
1.4650761 0.59866858 0.0038722656
1.4516014 0.91954416 0.0051178662
1.4775461 0.49236515 0.0048239897
1.4668282 0.49270105 0.0023361051
1.4652604 0.50912923 0.0025334007
1.4439107 0.99476099 0.0043277391
1.4861236 0.20229599 0.0037019986
1.4841729 1.7184299 0.022777826
1.4715856 0.4182677 0.0026551804
1.4230593 1.3733228 0.0045664017
1.4457916 0.98534662 0.0048768804
1.4760998 0.2620317 0.0021278262
1.4415596 0.96534908 0.0026670708
1.4690965 0.77146643 0.0052918806
1.455786 0.70258576 0.0023633714
1.4352896 1.1881554 0.0053729061
1.4777664 0.24301735 0.0020376092
1.4653287 0.5346126 0.0026374313
1.4326136 1.2825047 0.006639638
1.4731119 0.41429424 0.0030907323
1.4415647 1.0055274 0.003559096
1.4643086 0.69392192 0.0055452297
1.4784777 0.24493966 0.0020879726
1.4456396 0.98737174 0.0048666038
1.473785 0.44370359 0.0038831544
1.4327402 0.92956442 0.0047702356
1.4470295 0.89442635 0.0032389499
1.4720904 0.387485 0.0022353944
1.4765579 0.39893058 0.0039746333
1.482294 0.18259503 0.0020910718
1.4761745 0.35095844 0.0029796814
1.4510914 1.1483794 0.006019365
1.4693761 0.49841663 0.0034004545
1.4706255 0.37184894 0.0021778031
1.4598509 0.88794291 0.0049935631
1.4736809 0.30479553 0.0026860419
1.4658586 0.50397378 0.0021979152
1.4393421 1.1670337 0.0068098563
1.476226 0.37159216 0.0033809531
1.4171398 1.5029728 0.0053174393
1.4578041 1.3910747 0.017692445
1.4706618 0.41731659 0.0021660407
1.4801981 0.24034064 0.0023888673
1.4850664 0.27512878 0.0045807105
1.472131 0.38179192 0.0021441591
1.4929688 0.078581497 0.0038783152
1.4618404 0.62091619 0.0030762462
1.460705 0.59776384 0.0021244555
1.4919826 0.062577583 0.0033093141
1.4553268 0.73336649 0.0029819794
1.4594331 0.64529628 0.0026935884
1.407287 1.7242608 0.0068063396
1.4827925 0.23728682 0.0031453285
1.4169078 1.5214109 0.0057230806
1.4663795 0.51169944 0.0025722517
1.4589994 0.65073574 0.0026393409
1.4414161 1.1390799 0.0069990167
1.4030541 1.8450726 0.0080646174
1.4713989 0.4627454 0.0034296592
1.4598686 0.66451633 0.0032608714
1.4116018 1.6240658 0.0060222237
1.4593974 0.62579125 0.0021966717
1.459534 0.67777246 0.0037980415
1.4694115 0.36291885 0.0029710215
1.3476726 2.8343928 0.0072279293
1.4300877 1.0968634 0.0028175998
1.3502133 2.7685258 0.0066273441
1.4357512 1.076221 0.0027943826
1.4499021 0.82846731 0.0024874527
1.3943571 2.0282402 0.0090001933
1.4328223 1.2580768 0.0061400332
1.462589 0.57538307 0.0024497025
1.4810486 0.23440197 0.0027508521
1.3741899 2.2896047 0.0055953544
1.4677138 0.40587112 0.0030300179
1.4672827 0.47873408 0.0022350904
1.4704543 0.43751338 0.0026139361
1.4575117 0.71455753 0.0034356918
1.4492435 0.92554444 0.0048996611
1.4563876 0.71074474 0.0029069304
1.3789762 2.2371781 0.0073084892
1.4545665 0.72036558 0.0023190982
1.4461747 0.88619041 0.0029013376
1.4779752 0.31427643 0.0029150588
1.4549979 0.73686743 0.0029266686
1.4589354 0.65180326 0.0026384564
1.3868328 2.0314481 0.0048582321
1.4933596 0.37884623 0.006396689
1.4646634 0.56385338 0.0029669106
1.4842167 0.20376827 0.003105147
1.4655857 0.45406878 0.0026715649
1.4613396 0.58308667 0.0020696074
1.4839469 0.49882156 0.005886002
1.4441537 0.95296842 0.0034045654
1.4991137 1.3219109 0.017469533
1.4575003 0.68760985 0.002846268
1.4861813 0.16177307 0.0030935775
1.4307853 1.219936 0.0041328412
1.4748467 0.35726467 0.0026694397
1.4433575 1.1056414 0.0069049294
1.4768144 0.34265134 0.0030542838
1.3447663 2.9288223 0.0089776218
1.4120934 1.598359 0.0054793819
1.4625283 0.58125502 0.0025500972
1.4726086 0.55181324 0.0055245077
1.426809 1.3173277 0.0049313796
1.4791244 0.22476412 0.0020857728
1.4527296 0.7891016 0.0031850107
1.4672437 0.47940511 0.0022333835
1.44813 0.87744206 0.0032104678
1.4440004 0.99623942 0.0044088815
1.3852892 2.1967773 0.0092398878
1.4396344 1.0010341 0.0026880843
1.4705201 0.46808147 0.003202115
1.4611912 0.54939288 0.0028360563
1.4411037 0.87829763 0.0028159658
1.4913715 0.1221516 0.0032857249
1.469592 0.6037423 0.0055514453
1.4591099 0.63158852 0.0022070371
1.4496169 0.81889486 0.0028055441
1.4644773 0.5457173 0.0025426275
1.4548577 0.81572485 0.0034628303
1.4737024 0.37822205 0.0026563795
1.4478015 0.85237896 0.0027681303
1.4493181 0.92495739 0.0048993514
1.4651083 0.56986904 0.0032745802
1.4648628 0.398204 0.0020449581
1.4589088 0.6811071 0.003241803
1.3910314 2.0151594 0.006822282
1.4750448 0.32756507 0.0021793996
1.475457 0.25866792 0.0020197844
1.4834871 0.34942245 0.0053127776
1.4122373 1.6070637 0.0058566653
1.3970021 1.9033117 0.0066279783
1.4710165 0.41085514 0.002286297
1.4840558 0.33930051 0.0053206105
1.464022 0.55431229 0.0025447488
1.4675149 0.53616416 0.0034753906
1.4603127 0.73248231 0.0040877801
1.4576099 0.54593039 0.0027428169
1.4920101 0.22969273 0.0050326111
1.4573929 0.71560615 0.003436777
1.4045655 1.8455526 0.0088517917
1.4778293 0.32441282 0.0030728485
1.4453019 0.92718083 0.0032703206
1.4602852 0.62648964 0.0026267786
1.3642006 2.543463 0.0081695328
1.4678663 0.50620139 0.0029931958
1.4742185 0.52310658 0.0055643949
1.4903506 0.052397821 0.0025956945
1.490659 0.19018738 0.0048923776
1.4465679 0.87234902 0.0026137379
1.4339737 1.5224031 0.012903357
1.4861134 0.099107988 0.0020278262
1.4522676 0.76701033 0.0025983718
1.4589425 0.63868743 0.0022899886
1.4866008 0.12203424 0.0025103558
1.4449112 0.90293145 0.002630892
1.4948179 0.20187734 0.0062433006
1.4753495 0.39826608 0.003570403
1.4417223 1.1341227 0.0042792512
1.4994313 0.28353658 0.0063205957
1.4686484 0.46803623 0.0025523952
1.4753608 0.40506282 0.0032471458
1.4627138 0.66476136 0.0043521766
1.4772947 0.33413869 0.0030654296
1.4319876 1.3580391 0.0047650202
1.4545196 0.75438589 0.0031318481
1.3997859 1.8575943 0.0067667672
1.465394 0.48973027 0.0027029407
1.4391087 1.4174805 0.012442314
1.4748484 0.34924465 0.0024926111
1.4503864 0.8045994 0.0028047948
1.4591833 0.63612401 0.0023887653
1.4717124 0.3960447 0.0022603516
1.4153295 1.5716681 0.0064189578
1.4713705 0.74583745 0.0058981203
1.4624978 0.5738861 0.0021172487
1.4733379 0.36466342 0.0022213242
1.4860979 0.26894906 0.0049775438
1.5022678 0.27371353 0.0070547047
1.480612 0.21153089 0.0020519642
1.4862927 0.15253067 0.0028963406
1.4686368 0.45439276 0.002258607
1.4785036 0.25130379 0.0020293491
1.4767773 0.39984807 0.0040684976
1.478809 0.30444694 0.0030577125
1.4853264 0.19348565 0.003272444
1.4582485 0.60899204 0.0022792337
1.480117 0.26977852 0.0028858331
1.4627789 0.63520724 0.0037470809
1.4866518 0.25245723 0.0036248011
1.4728568 0.35702834 0.0019412024
1.4155544 1.5627383 0.0062440974
1.4698515 1.3677026 0.020635838
1.4497565 0.85052806 0.00336503
1.4922017 0.087732926 0.0037823527
1.4926218 0.074196361 0.0037023223
1.4671603 0.49568048 0.0025477558
1.4671725 0.56281561 0.0033555778
1.449136 0.82669753 0.0027136295
1.4592457 0.65390289 0.0028111583
1.47603 0.31183723 0.0021468992
1.4847964 0.12420902 0.0020051021
1.4767557 0.36946273 0.0035043575
1.4947577 0.072845966 0.0043292372
1.4582957 0.65363002 0.0024097757
1.4328437 1.3771075 0.0090679694
1.4814212 0.2436714 0.0036348009
1.5106518 0.20751093 0.010540958
1.4225805 1.4021809 0.005221636
1.4715526 0.49568805 0.0032674063
1.459717 1.121443 0.011055904
1.4306716 1.2357233 0.0045358143
1.4583756 0.71677101 0.0029227014
1.4235172 1.3458208 0.0034450532
1.482823 0.17336488 0.0021304558
1.4765681 0.40642473 0.0041170693
1.4783705 0.27327198 0.0023465846
1.4722452 0.37959495 0.0020756249
1.4929458 0.098657876 0.0041796402
1.4760691 0.31304464 0.0022676911
1.4501117 0.83611071 0.0031598848
1.4706591 0.46182805 0.0031310895
1.3601227 2.6626959 0.0071750409
1.4878428 0.16553503 0.0036394242
1.4744995 0.33067077 0.0022973609
1.4849777 0.21458857 0.0035392214
1.4923009 0.20087315 0.0047893231
1.4403886 0.94689727 0.0044036214
1.4584457 0.69720501 0.003425475
1.480178 0.35218298 0.0043297997
1.4763691 0.32775149 0.0024550047
1.4549079 0.93094808 0.004127454
1.4827907 0.36165178 0.0053012236
1.4933268 0.10478815 0.004396786
1.4476832 0.85539293 0.0028121911
1.4852742 0.44336286 0.0060175559
1.4287649 1.3424703 0.006571319
1.4620382 0.58432156 0.0024195588
1.4701582 0.52133125 0.0041215811
1.4593021 0.63546896 0.0025073127
1.3870806 2.3471727 0.014755166
1.474509 0.35885227 0.0025768608
1.4545386 0.9139902 0.0067167506
1.4454043 0.9272964 0.003323877
1.460229 0.66082001 0.0033301702
1.4735115 0.33940658 0.0018922697
1.4678446 0.50618124 0.0029898414
1.4686629 0.46044257 0.0023953104
1.4104258 1.739908 0.0087201074
1.4767267 0.33033317 0.0027842461
1.4585315 0.77746785 0.0051662731
1.4685096 0.45260909 0.0021767917
1.4007713 2.0053458 0.011589633
1.46416 0.53213537 0.0021204099
1.4928101 0.034724336 0.0030836507
1.4874277 0.34196413 0.0048905211
1.4070592 1.7068398 0.0061365995
1.4822875 0.24142937 0.0031090137
1.4828289 0.3513304 0.0044807489
1.4800762 0.40817559 0.0053097513
1.44648 0.95869762 0.0045651896
1.4568695 0.76250994 0.0042419396
1.4544998 0.91845798 0.0068144305
1.4715884 0.42890099 0.0027586508
1.4711897 0.42113236 0.0025298342
1.4512779 0.81887567 0.0032644942
1.4722109 0.38647041 0.0020684879
1.4844904 0.19818008 0.0030982101
1.3807236 2.263916 0.0087473774
1.4786462 0.36998212 0.0041465582
1.447037 0.90978318 0.0036261259
1.4582922 0.67544132 0.0028999113
1.5011154 0.2105079 0.0060204426
1.4709901 0.42487371 0.0025432475
1.4859149 0.26108855 0.0046080477
1.4889706 0.11935036 0.0032037429
1.4624676 0.58001769 0.0025004337
1.4683856 0.46155101 0.002301774
1.4666944 0.48791552 0.0020724973
1.4857883 0.46429971 0.0054823617
1.4907672 0.080578923 0.0031779162
1.4925593 0.092687018 0.0039701681
1.4928803 0.08493486 0.0040731472
1.4316629 1.2186946 0.0044885832
1.4750762 0.35015202 0.0026214914
1.4397787 1.0022694 0.0028200021
1.4516511 0.8146944 0.003328057
1.4808865 0.29025742 0.0030148139
1.4661789 0.50634247 0.0023635859
1.4938114 0.11136118 0.0046485583
1.4476616 0.92039579 0.0041187857
1.4719441 0.40504396 0.0025026475
1.48122 0.14630765 0.002119543
1.4601851 0.60657483 0.0021028232
1.4882405 0.085420221 0.0024553777
1.4595749 0.21967776 0.0021246371
1.4728521 0.34790158 0.0019013814
1.4948817 0.10005902 0.0047979662
1.4661462 0.49673036 0.0021655166
1.5021304 0.49100506 0.012789543
1.4034979 1.7160295 0.0046825898
1.4279249 1.2930984 0.0047703688
1.4849418 0.13421361 0.0021466368
1.4622028 0.5670771 0.002078434
1.4957767 0.13907512 0.0056388336
1.4551185 0.79669034 0.0043212757
1.4584974 0.68376917 0.0028712344
1.4817905 0.32329816 0.0043415199
1.4362975 1.2608827 0.0077925553
1.4350973 1.154826 0.0044780169
1.4661952 0.54298222 0.00311385
1.4493206 0.86289519 0.0034775017
1.4038297 1.8557904 0.0067355256
1.4569155 0.64597279 0.0023382395
1.4970371 0.054118998 0.0047423448
1.4708906 0.42433792 0.0024767974
1.4756536 0.31681594 0.0021913133
1.4708763 0.53698158 0.0046599568
1.4827964 0.54564154 0.0057288418
1.464313 0.59143734 0.0034227856
1.3890493 1.9870515 0.0046788794
1.4667057 0.68522072 0.004445496
1.4840019 0.17153363 0.0024799756
1.5730487 0.27310538 0.020787802
1.4782811 0.66141748 0.0059173307
1.4663092 0.55160791 0.0033473244
1.4386934 1.2576156 0.0043935175
1.5065105 0.38545242 0.0088791242
1.4599823 0.61372042 0.0021749209
1.445237 1.0381224 0.0060838042
1.4912877 0.26012832 0.0060307425
1.4877545 0.14152983 0.0033568931
1.4515131 0.8183654 0.0033495107
1.4902595 0.085329399 0.003073324
1.4515057 0.53402293 0.0023179413
1.4363326 0.98248839 0.0028996535
1.468915 0.45228118 0.0023174644
1.4638765 0.53528309 0.0020746279
1.4954697 0.10968871 0.0051261093
1.4712045 0.42254007 0.0025650389
1.4792418 0.34409758 0.0038835229
1.5012634 1.4924996 0.031380542
1.4504343 0.72728181 0.002675747
1.3969481 1.9063489 0.0067649977
1.493072 0.23224995 0.0058150571
1.4688346 0.45379382 0.0023159764
1.4604036 0.62942725 0.0027413217
1.4483355 0.8461569 0.0026997849
1.4851229 0.18161698 0.0030311905
1.450909 0.89794761 0.0049232817
1.464439 0.52239317 0.0020317631
1.4403815 0.99147695 0.0028420722
1.4720228 0.36508638 0.0018476227
1.4291394 1.2062706 0.0030753058
1.4845322 0.1575322 0.0024236834
1.4401737 0.99582773 0.0028471136
1.4693931 0.58103698 0.0042666867
1.4359461 1.1631614 0.0038854433
1.4441612 1.2889408 0.005713806
1.4782383 0.30596653 0.0028710489
1.4724791 0.36034289 0.0019171289
1.4696387 0.68072808 0.0060019605
1.4685585 0.46259537 0.0023841562
1.3988309 1.842574 0.0057709804
1.4586 0.73785222 0.0043748878
1.4387776 1.2563595 0.0084407916
1.468819 0.48676929 0.0029696196
1.4316007 1.1580807 0.002974421
1.4845027 0.15726097 0.0024096232
1.4862595 0.22530115 0.0032831049
1.4729538 0.35842574 0.0019953402
1.3738058 2.3465431 0.0073908446
1.4566274 0.71561795 0.0031125848
1.4687206 0.46276718 0.0024458854
1.457943 0.37700433 0.0018928691
1.4820203 0.27181536 0.0029837103
1.4641418 0.55477798 0.0023348408
1.4672681 0.57752627 0.0042094896
1.4864849 0.16130325 0.0031367363
1.4043944 1.7008272 0.0047965078
1.4852972 0.14362605 0.0024424666
1.4905571 0.35569414 0.0073947301
1.4632664 0.58301061 0.0023136919
1.4680802 0.45197496 0.0019981102
1.4847226 0.19158967 0.0030702145
1.4743973 0.27330276 0.0020222005
1.4741598 0.33106917 0.0019670012
1.4740294 0.33490407 0.0019359725
1.4791487 0.35295758 0.0040131398
1.4707968 0.45746717 0.0030976182
1.4738464 0.35079044 0.0021109784
1.4456719 0.76278538 0.002029283
1.4810681 0.21545684 0.0022572058
1.4655904 0.51402569 0.002296289
1.4926795 0.093014039 0.0040037162
1.4957948 0.058280256 0.0044159568
1.4886585 0.084958643 0.0025723213
1.4439565 0.79374522 0.0020383901
1.4918921 0.082773045 0.003611966
1.4955261 0.059456032 0.0043526278
1.4381764 1.0277606 0.0026482432
1.465287 0.52261251 0.0023509229
1.4537253 0.76007199 0.0029232504
1.4403743 0.98919523 0.002740968
1.4470761 0.86530411 0.0027595765
1.492977 0.053449485 0.0035596683
1.4515216 0.77980334 0.0024082155
1.4830312 0.70053077 0.011284323
1.4786545 0.34736601 0.0037536959
1.4693836 0.54482442 0.0043123974
1.4833983 0.26156729 0.0031922515
1.467118 0.48397714 0.0022751973
1.4718958 0.37151691 0.0019113177
1.4604703 0.60319012 0.0021472953
1.4716445 0.41545415 0.0022971046
1.4033564 1.0863291 0.0042580403
1.4788131 0.3589628 0.0040090051
1.4655652 0.52495199 0.0025398075
1.4849281 0.18485661 0.0030293388
1.4274371 1.3002219 0.0047351201
1.4586482 0.69779336 0.0035348507
1.4569205 0.74074847 0.0031564469
1.4891672 0.099432908 0.0029552311
1.4773148 0.40067655 0.0042657824
1.4275671 1.2983031 0.0047423085
1.4621998 0.56649578 0.0020634534
1.4370871 1.0475157 0.0038856389
1.4727821 0.37674019 0.0022786737
1.4940833 0.069382437 0.0040710676
1.4593774 0.47338951 0.0022409784
1.4761624 0.19012988 0.0020750752
1.446944 1.0267339 0.0064546256
1.4446416 0.97283006 0.004093226
1.4598252 0.72082418 0.0044658319
1.4140567 1.5054373 0.0039255987
1.4798775 0.33319244 0.0038906662
1.431409 1.2271223 0.0046828743
1.4725192 0.38096243 0.0022639667
1.4323566 1.3561802 0.0082972255
1.4504544 0.87838101 0.0043038432
1.4747256 0.38926864 0.0031793399
1.463852 0.72612983 0.0061040348
1.4164017 1.4636079 0.004071495
1.4233289 1.3197384 0.0033015942
1.4697342 0.47383481 0.0030351796
1.4589667 0.69181782 0.0035211262
1.4623454 0.58755565 0.0026005618
1.4528166 0.75529379 0.0023945749
1.4667324 0.54715711 0.003411328
1.4083923 1.7893672 0.0092120813
1.4612776 0.71875501 0.0037092641
1.4652421 0.51662445 0.0022220854
1.4536786 0.77464086 0.003244255
1.4941034 0.069128901 0.0040722582
1.4573168 0.81294608 0.0038596634
1.4907625 0.49390346 0.0067879069
1.4258916 1.2757766 0.003470052
1.3412628 3.0402598 0.011130737
1.4480208 0.84495157 0.0025579885
1.457341 0.7733714 0.0028281263
1.4628719 0.55782336 0.002286867
1.4739958 0.35251713 0.0022604808
1.4665986 0.39187944 0.0021462326
1.482152 0.31731328 0.004351635
1.475005 0.31295958 0.001927902
1.4364725 1.1685801 0.00543425
1.4635307 0.55953091 0.0024864138
1.4652374 0.4315277 0.0023055959
1.4067749 1.8616849 0.010405881
1.4524704 0.75817716 0.0023115794
1.4834807 0.20927134 0.0029250262
1.4731818 0.43686327 0.0035578832
1.4582083 0.66924012 0.002723384
1.4562013 0.712116 0.0028610502
1.4525589 0.75475472 0.0022661148
1.5108513 0.16975448 0.010073919
1.3796976 2.2670674 0.0081533948
1.4845455 0.14113434 0.0021160892
1.4624877 0.44901747 0.0021504383
1.4650453 0.52127719 0.0022381165
1.4639335 0.54618698 0.0023153923
1.4721682 0.35548323 0.0021689022
1.4705763 0.57255173 0.0051829307
1.4904444 0.03639096 0.0023783671
1.4709518 0.41773546 0.0023915218
1.4581951 0.6541993 0.0023804475
1.4685988 0.45789602 0.0023096274
1.4163094 1.4644697 0.0040064212
1.4455912 0.92960912 0.0034688502
1.4761015 0.48138472 0.0053032548
1.4474295 0.85208672 0.0025676547
1.3527006 2.8266847 0.010638335
1.4676636 0.51161736 0.0030308284
1.4367919 1.1159883 0.0042298855
1.482421 0.26886019 0.0032889019
1.4626635 0.57577205 0.0024869549
1.4734774 1.5741646 0.014831799
1.4766657 0.30474654 0.0023226382
1.494241 0.042540118 0.0037516765
1.4082975 1.7716445 0.0085485633
1.4861841 0.45022354 0.007720158
1.4713792 0.48210171 0.0032209519
1.3942533 2.1723666 0.013220008
1.4963635 0.092364967 0.0051266691
1.448669 0.87347168 0.003451579
1.4440835 0.9198755 0.0027234496
1.4719235 0.49103668 0.0041277008
1.4609972 0.6473906 0.0033356824
1.4652388 0.65497297 0.0050127283
1.4571545 0.70497024 0.0030607262
1.4718772 0.40777248 0.0025312032
1.4812323 0.21240759 0.0022598065
1.4323071 1.1879004 0.0039853989
1.4951257 0.27056423 0.0087435478
1.475991 0.30976358 0.0021843179
1.4743723 0.33414653 0.0020501094
1.4867114 0.25943735 0.0048241727
1.4790248 0.50784755 0.0067440947
1.4113736 1.4175836 0.0040245522
1.4554182 0.68786383 0.002283996
1.4571625 0.68486416 0.0024539593
1.4848621 0.18551612 0.0030246419
1.4788194 0.27098781 0.0024001792
1.4930093 0.058379602 0.0035721615
1.4799638 0.22780657 0.00212349
1.4721439 0.4311305 0.0030719773
1.5126344 1.3748339 0.031844467
1.4833223 0.18352704 0.0024597454
1.4586616 0.64219391 0.0022525412
1.4859889 0.36742717 0.0052133854
1.4248911 1.4539653 0.0078990348
1.4835509 0.16160539 0.0024105071
1.4688541 0.45979565 0.0024376116
1.4527504 0.81395942 0.0038181639
1.485779 0.13151376 0.0024009948
1.4750667 0.44540361 0.0043479539
1.4549961 0.6748808 0.0024933212
1.3558258 2.781708 0.011214701
1.4129179 1.5267988 0.0039649233
1.4512751 0.781609 0.0023377091
1.4583526 0.63966846 0.0020766631
1.4721206 0.62036562 0.0044733239
1.4749757 0.38370851 0.0031656418
1.3764669 2.3799655 0.010185624
1.4395282 0.92667127 0.002574513
1.4389068 1.1694045 0.0066608777
1.4862907 0.13423212 0.0026065942
1.4626168 0.5545848 0.0019821748
1.4703416 0.39988992 0.0018771989
1.4444969 1.0175911 0.0048093405
1.4846079 0.80077916 0.0091724526
1.433489 1.1798041 0.004369955
1.4712909 0.40206981 0.0022260204
1.4259011 1.5776777 0.011227357
1.4537623 0.73316908 0.0022906649
1.4771494 0.27591187 0.0020189239
1.4897555 0.28084162 0.0059589124
1.4867886 0.12318207 0.0025860388
1.4655461 0.4945493 0.002224002
1.4614607 0.58373368 0.0021324377
1.4523671 1.0281928 0.0050983275
1.4502996 0.87000567 0.0040360638
1.4821382 0.28501883 0.0037964815
1.4887513 0.17919025 0.0041416883
1.4573761 0.66227162 0.0021698067
1.4433994 1.0247438 0.004814411
1.4481032 0.93408054 0.0037430592
1.4618518 0.57530725 0.0021093977
1.4854431 0.68526179 0.011705756
1.426716 1.6824528 0.0074025029
1.3960608 2.5720191 0.023900442
1.5045308 0.15179774 0.0081292652
1.4835058 0.18935254 0.0026111766
1.4406101 0.98492527 0.0027460707
1.4323908 1.1865253 0.0039910739
1.4629856 0.58155012 0.0027111869
1.4393958 1.0483775 0.0036641939
1.4944174 0.53393739 0.0082995761
1.4459944 0.25968474 0.0023407252
1.4381063 1.0407342 0.0031057324
1.4608936 0.60548824 0.0024211286
1.4822085 0.2905176 0.0039064377
1.4731777 0.38990369 0.0026833259
1.4721633 0.74076241 0.0088859741
1.3589351 2.7933159 0.013709861
1.6959262 0.84563231 0.063102283
1.4663739 0.50013119 0.0023144577
1.4518828 0.80060905 0.0030921556
1.4629272 0.47297463 0.0024586609
1.463932 0.54799879 0.0023536684
1.4683839 0.6000157 0.0050145797
1.4741299 0.35335767 0.0023205136
1.5713068 0.58022749 0.030875821
1.4934071 0.026903145 0.0031500352
1.4668134 0.500328 0.0024798897
1.4623815 0.66253722 0.004175344
1.4672058 0.47140029 0.0020177953
1.4530536 0.80913389 0.0038093687
1.4955156 0.087503463 0.0047979327
1.4865942 0.47847056 0.0082988814
1.454448 0.63551158 0.0023013635
1.4792376 0.2589125 0.0023898645
1.4461691 1.0748533 0.0072195344
1.4501983 0.88984543 0.0044716108
1.4724743 0.36017331 0.0019091037
1.4522842 0.76141715 0.0024173183
1.4570098 0.66093653 0.0028352092
1.473405 0.46299279 0.0040865438
1.4106277 1.56827 0.0038676481
1.4786042 0.26601177 0.0023004268
1.4670819 0.34229866 0.0018819934
1.3835453 2.1143539 0.0057942928
1.4686562 0.44850865 0.0025614095
1.4705157 0.46146742 0.0030854393
1.4933836 0.38435921 0.006598393
1.460382 0.76558352 0.0041151023
1.4093094 1.7659534 0.0090061724
1.455307 0.70820898 0.0023734306
1.4909499 0.087361239 0.0033648296
1.4628972 0.56957465 0.0024498554
1.4712702 0.38639349 0.0019239573
1.502511 0.19997644 0.0082949093
1.4773819 0.37618908 0.0038487399
1.4933101 0.28353113 0.0070010806
1.4442768 0.98458189 0.0042274515
1.4914279 0.76723182 0.0098254746
1.4592681 0.6147185 0.0022380617
1.4867203 0.11166451 0.002384763
1.4472414 0.93472183 0.0042915777
1.4526005 0.75749546 0.002355682
1.4761894 0.43984818 0.003436412
1.4890864 0.11867188 0.0032279999
1.4566358 0.70619857 0.00290921
1.3953424 1.8759276 0.005004656
1.4874876 0.12594619 0.0028466615
1.4716897 0.39963412 0.0023176705
1.4687871 0.48039579 0.0028239691
1.3656754 2.4548075 0.0058251754
1.4148265 1.4919909 0.0039843726
1.4613826 0.5852949 0.0021320076
1.4745667 0.34002066 0.0022345411
1.361541 2.7435753 0.013473415
1.3705553 2.5591309 0.0091804555
1.4764948 0.35158765 0.0031017934
1.4912348 0.59741694 0.011697679
1.4486967 1.0358454 0.0071525583
1.4722797 0.44214511 0.003335465
1.4858403 1.2440764 0.022570232
1.4902103 0.15265784 0.0041650529
1.4645369 0.53403264 0.0023010997
1.461944 0.67281485 0.0037618612
1.4631821 0.55495042 0.0022077267
1.4901505 0.090646848 0.0031214049
1.4561303 0.58454525 0.0025296269
1.4039865 1.6958174 0.0040461062
1.4833831 0.384195 0.0059098387
1.4662226 0.64436537 0.0051500355
1.4827906 0.33124444 0.0048090336
1.466625 0.52417511 0.0028970803
1.3860368 2.7673895 0.016128866
1.4770849 0.3094238 0.003042815
1.496155 0.21993178 0.0068276203
1.4721029 0.37950492 0.0020963275
1.4255412 1.2822616 0.0034673386
1.3943564 1.8843843 0.0044721789
1.4776294 0.30731639 0.002684779
1.4520439 0.84720987 0.0042371429
1.4750209 0.38751355 0.0032487302
1.4535149 0.85538518 0.0049735848
1.4443235 0.31144497 0.0020243926
1.4406246 1.0387471 0.0039920579
1.4313046 1.172581 0.0033486017
1.4545612 0.75009823 0.0030542642
1.4873735 0.10838357 0.0025388966
1.4666376 0.73069847 0.0069009787
1.4759724 0.34165025 0.0028144903
1.4773158 0.3174451 0.0027562932
1.3993275 1.7921253 0.0045542293
1.4829711 0.18212685 0.00232182
1.4129009 1.5286818 0.0039657503
1.4825529 0.19924773 0.0024676961
1.4547566 0.74732256 0.0030684427
1.4570174 0.7922641 0.0049171899
1.4724182 0.36088499 0.0019425503
1.4608592 0.62061709 0.003259832
1.4701105 0.48879567 0.0034698376
1.46944 0.40210354 0.0021446883
1.4397855 1.5544831 0.015493196
1.4947704 0.27854627 0.00736822
1.4532416 0.98921096 0.0055103465
1.4874263 0.10820178 0.0025522024
1.41056 1.6684161 0.0068647675
1.4402349 1.0577878 0.0028871878
1.4506423 0.91040874 0.0051194206
1.4663359 0.50811636 0.0024551072
1.4671462 0.50005513 0.0025326391
1.4620671 0.62331116 0.0032343534
1.411116 1.6485084 0.0064941612
1.4428308 1.1593705 0.0042579286
1.4680376 0.4665561 0.0026006706
1.4678897 0.48501104 0.0026033882
1.4535214 0.73982078 0.0023424865
1.463902 1.1500331 0.010442281
1.4603087 0.60781842 0.0021783044
1.4470301 0.93686175 0.0042580273
1.4599581 0.6046657 0.0019772016
1.4589204 0.62453163 0.0019774786
1.4080914 1.6159818 0.0038435603
1.4741257 0.64341295 0.0075878631
1.4684292 0.61541003 0.0053504407
1.4339166 1.117655 0.0030695861
1.449756 1.1814504 0.010663768
1.4621025 0.57894325 0.0022787789
1.4472828 0.90759981 0.0036849717
1.4304109 1.1794815 0.0037827275
1.4719335 0.43769461 0.0031215944
1.494907 0.082700565 0.0045386367
1.4647363 0.56023717 0.0029208183
1.4354936 1.0886174 0.0030826584
1.4406515 1.4026215 0.0085327365
1.4905188 0.040978089 0.0024737755
1.4655062 0.51037449 0.0022608039
1.3656752 1.9568893 0.0051501752
1.4415597 1.0030704 0.0034872792
1.436556 1.0601342 0.0027486978
1.4576781 0.69450575 0.0030533352
1.4588107 0.64154178 0.0022787442
1.4787986 0.28156817 0.0026267543
1.4819882 0.21624589 0.0025654817
1.4644428 0.54018384 0.0024325547
1.4713348 0.38349971 0.0019144352
1.4812828 0.20432189 0.0021434785
1.489529 0.090727456 0.0025691986
1.4534615 0.73750883 0.0022589769
1.474946 0.34231403 0.0024032849
1.4220314 1.3582215 0.0040256232
1.4624567 0.75966358 0.0063123619
1.4551471 0.72841704 0.002817292
1.4469066 0.8668527 0.0026668909
1.4754682 0.30411583 0.0019677288
1.4753363 0.33563951 0.0024176911
1.462087 0.60710281 0.0028744128
1.476552 0.35711184 0.0032157174
1.471808 0.38527417 0.0020978586
1.4749492 0.43018273 0.0038798486
1.4556538 0.69023293 0.0029540835
1.4633235 0.74542391 0.0062730801
1.4890316 0.6339044 0.011728182
1.4715384 0.44170335 0.003058027
1.4088396 1.594676 0.0035986742
1.4680183 0.49018008 0.0027379056
1.4647324 0.52327001 0.0020989899
1.4876354 0.14567932 0.0029862253
1.4493454 0.85574359 0.003313832
1.4777945 1.6196333 0.027859783
1.449645 0.81684762 0.0026737438
1.464355 0.59327501 0.003281699
1.4455318 0.88851327 0.002488981
1.4790152 0.25999343 0.0023341281
1.4625009 0.56896919 0.002230508
1.424291 1.4102519 0.0062564751
1.4303924 1.2788054 0.0055116187
1.4775738 0.3413198 0.0032775442
1.4761856 0.28819275 0.001921193
1.4699628 0.44051689 0.0024667473
1.4594042 0.5220713 0.0021714403
1.443109 0.97609955 0.0034203257
1.4790794 0.3628912 0.0041748122
1.4788235 0.294543 0.002564691
1.4244453 1.3109114 0.0038839637
1.4746108 0.348793 0.0024035904
1.4872366 0.12746793 0.0024773285
1.4995167 0.55297303 0.0091946581
1.4797107 0.51146835 0.0069034039
1.4324255 1.6980109 0.016406616
1.480925 0.2147468 0.0021993758
1.4377255 1.577093 0.015640633
1.4418961 1.0113668 0.003865937
1.486253 0.4526611 0.0077680741
1.4587862 0.65957189 0.0027482568
1.4752526 0.32124802 0.0021380836
1.4471344 0.89647216 0.0033254642
1.482878 0.49192223 0.007454202
1.4814092 0.2254793 0.0025366738
1.4885066 0.090337142 0.0026100806
1.4863198 0.13140154 0.0025696657
1.4356073 0.96610582 0.0025104166
1.4567486 0.63377726 0.0019411043
1.4560152 0.68979895 0.0022157873
1.4571304 0.74174094 0.0038972769
1.4778682 0.39722878 0.0043822974
1.4626268 0.56138527 0.002245818
1.4881632 0.076587789 0.0022828674
1.3688697 2.5176077 0.010188718
1.3559843 2.729054 0.0092744306
1.4690893 0.44095293 0.0021661848
1.4590207 0.62859356 0.0021005743
1.4479992 0.8782205 0.0027385801
1.4616426 0.60165268 0.0026302314
1.4566349 1.2844875 0.015155602
1.4774027 0.34541008 0.0032865042
1.4221097 1.3557568 0.0039596423
1.4376346 0.70592642 0.0023323195
1.454325 0.89178395 0.0051141325
1.4818243 0.31485975 0.0042062169
1.446386 0.8802523 0.0028408109
1.4674685 0.50677991 0.0028622407
1.503786 0.3175652 0.0075612976
1.4637344 0.58023351 0.0029525554
1.4727221 0.34101582 0.0019702392
1.4565593 0.77690405 0.0044406177
1.4785857 0.30122173 0.002509359
1.4353117 1.1996272 0.0057011996
1.4393958 1.1194351 0.0039204508
1.4403547 1.0474603 0.0041089882
1.4747798 0.37075824 0.002875519
1.4896479 0.16475114 0.0032331042
1.4346992 1.0991118 0.0029116536
1.4339217 1.117565 0.0030696001
1.4342701 1.1219673 0.003534534
1.4873614 0.10834938 0.0025347644
1.4562094 0.86519367 0.0047346358
1.4393898 1.0168641 0.0031144666
1.4687878 0.50590813 0.0033309129
1.4227313 1.3328443 0.003383189
1.4663934 0.48822072 0.0020910325
1.4600495 0.61760372 0.0022852728
1.4453559 0.89146334 0.0024430486
1.4692843 0.42021564 0.0018694419
1.4890939 0.07464125 0.0025474597
1.4750354 0.58274543 0.0077472008
1.4761446 0.32859176 0.0025806474
1.4195974 1.4044396 0.0040813163
1.4684716 0.41091385 0.0019639223
1.4684958 0.44615349 0.0020516238
1.4833527 0.1788899 0.00239035
1.4814907 0.20027141 0.0021418352
1.5005112 0.2284839 0.0081676655
1.3794125 2.2391615 0.0072160107
1.4993352 0.24535549 0.008108153
1.4450583 0.90516758 0.002855621
1.4713994 0.44226542 0.0030117857
1.4692535 0.7439853 0.0080410317
1.4414707 0.97234923 0.002877014
1.4632627 0.52600366 0.0019700874
1.4549384 0.80965906 0.0045418674
1.4713002 0.39935559 0.0021755621
1.4867239 0.19026315 0.0036578211
1.4000407 1.9211575 0.0087020835
1.4710041 0.40232694 0.0021253796
1.4306127 1.1831757 0.0032511996
1.4658931 0.50026131 0.0021401325
1.42817 0.9921779 0.002575136
1.4628673 1.0190203 0.011546306
1.4701041 0.43134743 0.0023470402
1.4694439 0.59864455 0.0053621824
1.4684553 0.50641638 0.003209728
1.4016187 1.8144581 0.0064958213
1.4903075 0.65860438 0.0084995534
1.4419397 0.96815115 0.0030414735
1.4149241 1.5484082 0.0054676654
1.4541523 0.72946429 0.0023720823
1.4638351 0.56794959 0.0024863388
1.4811432 0.24045895 0.0026943118
1.4653705 0.51627362 0.0022592552
1.4680037 0.48321345 0.0026019639
1.4092511 1.7407194 0.0081429221
1.4773304 0.28364104 0.0021798303
1.4694002 0.43937784 0.0022439018
1.4436423 0.8493095 0.0027315586
1.4640226 0.53721839 0.0021712736
1.4805384 0.26960698 0.0029847336
1.4705777 0.42053729 0.0021835451
1.4849607 0.15925576 0.0025862628
1.4533837 0.87475836 0.0053585083
1.4325353 1.1579493 0.0037555902
1.4564484 1.1566195 0.012386573
1.4327415 1.008839 0.0025493111
1.4642839 0.54831469 0.0025338246
1.4589163 0.68443549 0.0033191021
1.4736533 0.40011573 0.00301802
1.4413627 1.0061232 0.0034746116
1.443803 0.92726725 0.0028123425
1.44706 0.90614748 0.0035382868
1.4431165 0.93981332 0.002807122
1.4286176 1.2172779 0.0031331549
1.4325688 1.1908263 0.004190912
1.484715 0.14847806 0.0023370981
1.4644873 0.53341764 0.0020773846
1.4359132 1.1880773 0.0056263977
1.4869392 0.31064332 0.004717893
1.4822786 0.2128633 0.0026039791
1.4289037 1.2205182 0.0034938396
1.4288261 1.2272435 0.0037613399
1.466292 0.50030553 0.0022892139
1.4603157 0.62259817 0.0025541992
1.4635234 0.48696905 0.0023347798
1.4861722 0.43754831 0.0070667798
1.4583601 0.63467127 0.0019872445
1.4941999 0.52766657 0.0080492254
1.4784369 0.29687071 0.0027696437
1.4860114 0.11205107 0.0021668682
1.4965607 0.43679097 0.0073498073
1.3565921 2.8759878 0.014965562
1.4380623 1.1139323 0.0032938963
1.3415252 3.0245373 0.010624884
1.4749793 0.55549198 0.0062391795
1.4620428 0.57202286 0.0021151141
1.489391 0.29613459 0.005381701
1.4041723 1.8751414 0.0095424987
1.4711285 0.40363488 0.0026108914
1.4466411 0.92759424 0.0038870445
1.4738674 0.3345753 0.0019328893
1.471941 0.45439371 0.0034577537
1.4861996 0.16052082 0.0030316717
1.4865519 0.14958811 0.0029468974
1.4759758 0.36244962 0.0031237537
1.4508065 0.83477467 0.0034454118
1.4730399 0.40882421 0.0029713307
1.4724998 0.390542 0.0024317864
1.4097548 1.5912533 0.0042173308
1.4199545 1.581441 0.0089013167
1.4599092 0.60685974 0.0019978823
1.4893827 0.057180516 0.0023678937
1.4877509 0.12425179 0.0029034466
1.4065847 1.7289025 0.0065051666
1.4734068 0.36884815 0.0025567303
1.3236039 2.6783059 0.0081135361
1.4538541 0.73862916 0.0024564043
1.3530221 2.9257138 0.014503034
1.4505718 0.72040033 0.0024228424
1.4012696 1.756556 0.0046372269
1.4291446 1.2202604 0.0036919864
1.3877622 2.0385201 0.0058320248
1.5143435 0.21554522 0.011631434
1.4771137 0.32970762 0.0028376153
1.3736452 2.1284621 0.0055677933
1.4898685 0.043001689 0.0023013446
1.4243263 1.4187502 0.006547492
1.4614315 0.58879316 0.0022235918
1.4342468 1.2600257 0.0069526853
1.3913615 2.2909639 0.015250714
1.4731319 0.33484364 0.0025938777
1.4601812 0.60808969 0.0021336379
1.431217 0.36216676 0.0021769193
1.4671718 0.50683379 0.0027525518
1.4546019 0.76401788 0.0033637856
1.4241502 1.4775625 0.0046687806
1.4503871 0.93137825 0.0034146444
1.4559952 0.69704038 0.0024199209
1.4701741 0.41441599 0.0020579305
1.4723598 0.53459615 0.0050798911
1.4602478 0.62433147 0.0025674591
1.4612262 0.59308916 0.0022275557
1.4949347 0.062196281 0.0042107147
1.4579328 0.73697543 0.0040943264
1.4390179 1.0221734 0.0030393689
1.4819659 0.22798309 0.0027504538
1.4330215 1.1872611 0.0043485356
1.4841506 0.18837884 0.0027969093
1.4194068 1.4054322 0.0039362647
1.4756639 0.35311434 0.0028608378
1.4271046 1.2460275 0.0031498265
1.4430088 0.94201314 0.0028094663
1.4230865 1.328747 0.0035113888
1.4705147 0.52361375 0.0031752884
1.4044695 1.7516271 0.0060030445
1.4440985 0.75492537 0.0025098072
1.4575416 0.65738827 0.0021328926
1.4387624 1.0308155 0.0031865516
1.4469991 0.78102517 0.0049546538
1.4896168 0.1360717 0.0037152818
1.4919337 0.38504457 0.0063369544
1.4777844 0.82071131 0.0076639596
1.3594588 2.7190521 0.011428716
1.4776152 0.29436865 0.0024570536
1.4541945 0.8037914 0.0041078692
1.45972 0.61711174 0.0021407057
1.4559578 0.74195033 0.0030928738
1.4779956 0.2897734 0.0025032929
1.4549254 0.77991933 0.0031590236
1.4527153 0.61112434 0.0022360049
1.4635047 0.5636937 0.0025514818
1.4719489 0.42823538 0.002949764
1.4178683 1.4420437 0.0043170867
1.4520614 0.91469467 0.0056196433
1.435003 1.1409687 0.0040597734
1.4658113 0.50184256 0.0021454014
1.340907 2.9665647 0.008492264
1.4674671 0.46074462 0.0018924954
1.4742661 0.39227918 0.00309395
1.462129 0.60271174 0.002824093
1.4264288 1.2590693 0.0031406456
1.5115235 0.54546046 0.011553423
1.4443007 0.91158611 0.0025042952
1.4529678 0.82580721 0.0042291991
1.4317262 1.5299191 0.012265746
1.4864709 0.1269094 0.0025462508
1.3945917 1.8810691 0.0045286594
1.4670116 0.37853688 0.0020913924
1.4271919 1.5320231 0.010623018
1.4774799 0.30804777 0.0026468497
1.4725279 0.5315308 0.0050776275
1.4553978 0.52383929 0.002239465
1.4879916 0.072429933 0.0021629117
1.4145447 1.5043236 0.0044721868
1.486045 0.12323594 0.0023536477
1.4261577 1.2637951 0.0031483066
1.4331621 1.2624447 0.0040792814
1.4581829 0.82856321 0.0048207222
1.5245507 0.13657442 0.012413422
1.503045 0.28260484 0.0096520772
1.3635663 2.632468 0.010979628
1.4385847 1.0346675 0.0032094221
1.4790719 0.21267609 0.0020673401
1.4066901 1.6494223 0.0043005454
1.4579647 0.7827701 0.0050679753
1.4067641 1.6468047 0.0042263176
1.4572309 0.46996471 0.0024920041
1.4965702 1.0146166 0.013064252
1.4601787 0.63830167 0.0028404424
1.4668088 0.51243192 0.002734314
1.4780601 0.32806239 0.0032079585
1.4372154 1.2084427 0.0035766042
1.4361804 1.0774369 0.0031623298
1.4550544 0.73509008 0.002898019
1.4584688 0.6610775 0.0026482013
1.4798027 0.42264897 0.0054443702
1.4692404 0.42188984 0.0019009352
1.4652281 0.51381934 0.002161335
1.4203107 1.3855352 0.0036959941
1.4818034 0.4961794 0.0050326651
1.4511135 0.81535131 0.0030245951
1.4937898 1.1540841 0.022864973
1.4680394 0.97516817 0.0073037534
1.4870648 0.09440434 0.0022218113
1.4140825 1.5818449 0.00606255
1.4604256 0.6048032 0.002160969
1.4210937 1.201206 0.0023646904
1.4198238 1.270848 0.0032641976
1.4203504 1.3921669 0.0041683195
1.4727776 0.3768751 0.0023237469
1.4644324 0.56372857 0.0028773604
1.488047 0.81337637 0.014767246
1.4593734 0.61753851 0.0020171988
1.5140772 0.80335134 0.021236859
1.4617132 0.58241051 0.0022011665
1.4855376 0.16031092 0.002782512
1.4583691 0.63475507 0.0019686432
1.431397 1.1631809 0.0030236074
1.5139427 1.1786635 0.018415036
1.4159039 1.4639775 0.0035612318
1.4689748 0.47898257 0.0028663923
1.4414763 1.0263847 0.0040668151
1.4353471 1.0808823 0.0026804369
1.4698734 0.44109291 0.002450601
1.432161 1.1949443 0.0040952503
1.4387081 1.0288361 0.0030843106
1.4119375 1.5499936 0.0042274296
1.4701773 0.43525052 0.0024460086
1.4344337 1.3192569 0.0045346734
1.4465145 0.87875557 0.0028767928
1.4370122 1.0617495 0.0031404165
1.386291 2.1551516 0.0054699322
1.3928171 1.9129944 0.0043897554
1.4374743 1.0920285 0.0039063985
1.4159253 1.6204865 0.0079650637
1.4548192 0.69856685 0.0020143096
1.4543351 0.88429904 0.0037972121
1.4357314 1.1599914 0.0038620667
1.3815485 2.5496738 0.017832544
1.5039873 0.11761053 0.0074992632
1.4120996 1.8111445 0.011364485
1.4190767 1.4127104 0.0040032631
1.3803233 1.9602573 0.0054523177
1.4579149 0.81762499 0.0058407825
1.4227831 1.3826805 0.0047252625
1.4400082 1.1405883 0.0037098422
1.4699855 0.43856844 0.0024397571
1.337284 3.0649469 0.008526383
1.4768182 0.30922073 0.0024514506
1.4251287 1.3167565 0.0040769898
1.4733862 0.36358207 0.0022447861
1.4419314 0.95741671 0.0026350925
1.4828868 0.17803036 0.0022314617
1.4692271 0.43250093 0.0020582534
1.3649453 2.5586314 0.0091846166
1.4677511 0.47766855 0.0023822063
1.4770424 0.29383323 0.0022614475
1.4764516 0.29775617 0.0021313033
1.4579252 0.65667391 0.002264211
1.4837934 0.17149979 0.0024132237
1.4590259 0.49164611 0.0018583712
1.5621388 0.53159523 0.023401119
1.4373006 1.0476129 0.0027952192
1.449172 1.3712 0.007943945
1.4390002 1.0940391 0.0035384744
1.4610856 0.60901499 0.0025698689
1.4582021 0.64367461 0.0021366905
1.4922585 0.37836772 0.0062511396
1.4918312 0.4314608 0.0089832526
1.4337072 1.1319849 0.0035185101
1.4282658 1.2740927 0.0044006142
1.4218189 1.4049253 0.0048623243
1.4239235 1.3122594 0.0034418392
1.4222708 1.3355764 0.0031223209
1.4422762 0.95555592 0.0028050654
1.4795647 0.81411809 0.0079228664
1.4744192 0.4962424 0.0050267614
1.4718004 0.41286424 0.0026176821
1.4044138 1.6464759 0.0047759153
1.4327002 0.92619997 0.0021460475
1.4682466 0.5204252 0.0034326671
1.4809973 0.22791357 0.0024404002
1.4881755 0.091105305 0.0025165628
1.4261814 1.3156544 0.0043587144
1.4816645 0.236901 0.0028018639
1.4724183 0.38023362 0.0022188609
1.4590247 0.65949649 0.0028526792
1.4863788 0.13166812 0.0028486252
1.4603184 0.65509146 0.0032360179
1.4615726 0.58567178 0.0022127186
1.4702961 0.57983643 0.0044977306
1.4328889 1.1306083 0.0028295601
1.4531188 0.84251165 0.0031724519
1.466939 0.54405117 0.0034223269
1.411237 1.5612471 0.0041084602
1.4235355 1.3199655 0.0034790752
1.4366114 1.0696372 0.0031644774
1.4760003 0.41329196 0.0040531186
1.497305 0.81105709 0.017141573
1.4431262 1.0336508 0.0040103421
1.4809302 0.78106892 0.0079355063
1.4733176 0.99283355 0.014103485
1.4712439 0.55740887 0.0051570646
1.4620121 0.62517929 0.0032514774
1.4746772 0.3644278 0.0031832941
1.4820472 0.19702379 0.0021860201
1.4066743 1.6536049 0.0044793049
1.4900471 0.045453724 0.0023957798
1.4752904 0.29117805 0.0028055462
1.4245631 1.6812384 0.013281689
1.4217342 1.3842647 0.0044769165
1.462248 0.5593347 0.0019378985
1.4691935 0.65391171 0.0062210141
1.4197062 1.3994286 0.0039149993
1.472026 0.44160691 0.0032202145
1.4147662 1.7888774 0.011940121
1.4343039 1.1192806 0.0034439778
1.3723816 2.3181717 0.0054480187
1.4701644 0.45442206 0.0028213705
1.4295628 1.2444917 0.0035875486
1.4122262 1.6805227 0.0049655219
1.4807295 0.21643178 0.0021645774
1.3943911 1.9613078 0.0070386054
1.4566345 2.6629472 0.043603737
1.4750286 0.340646 0.0024012786
1.4444119 0.92290008 0.003168192
1.4577935 0.66010362 0.0022834726
1.4388645 1.1885401 0.0038574885
1.485383 0.13716784 0.0023623032
1.491392 0.061714336 0.0030602706
1.4182103 1.4318979 0.0041792174
1.4571699 0.72467726 0.0035453539
1.4601156 0.64828259 0.0029972442
1.4880532 0.084025957 0.0023701007
1.4372653 1.1773194 0.0060566231
1.4456236 1.4404019 0.0095285531
1.4683583 0.49035093 0.0028614297
1.4878942 0.16981888 0.0037222682
1.450828 0.90914011 0.0051403828
1.4537812 0.88504517 0.0057814196
1.469165 0.44863689 0.002339436
1.4180989 1.4782985 0.0050667571
1.4278694 1.2449324 0.0037615844
1.3990852 2.2023447 0.013330832
1.4769086 0.34908465 0.0031951289
1.4183778 0.20138095 0.0019190981
1.4202919 1.3847371 0.0037045225
1.4835764 0.17364673 0.0023788966
1.4568479 0.68194658 0.0024387196
1.488286 0.24454311 0.0050675399
1.5023872 0.27349141 0.0070066294
1.489354 0.054736789 0.0023205704
1.4903346 0.48028195 0.0065814457
1.480118 0.28778702 0.0028093138
1.469752 0.46843043 0.0029477233
1.4788991 0.2526786 0.0021716382
1.4793404 0.31340608 0.0028006325
1.4945076 0.1345225 0.0052426928
1.4423743 1.0670061 0.0054493272
1.4125365 1.5441439 0.0045522498
1.4668056 0.5594058 0.00302982
1.4717636 1.181983 0.0099475281
1.4676275 0.46280956 0.0020203285
1.4665956 0.46031559 0.0022231424
1.4801021 0.25429332 0.0025885405
1.4771745 0.29267931 0.0022856959
1.4777234 0.33672071 0.002838708
1.4878553 0.10443905 0.002762073
1.4875294 0.09339761 0.0023532468
1.4560537 0.68446916 0.0021293249
1.4765167 0.31798401 0.0025023397
1.4487575 0.83084083 0.0025658549
1.4816833 0.1850785 0.0024588213
1.4513803 0.80442339 0.0029663621
1.4668021 0.79667056 0.0083038397
1.4728327 0.44031593 0.0035028008
1.4838569 0.19932489 0.0028800084
1.4537991 0.84481919 0.004842259
1.4898884 0.13185692 0.0037374741
1.4312783 1.1809185 0.0037460153
1.4716172 0.38817278 0.0020861861
1.4832633 0.16965796 0.0022143987
1.4176534 1.4432493 0.0042295638
1.4668192 0.49834451 0.0024421227
1.4584866 0.64626437 0.0022690794
1.4780849 0.26384139 0.002085051
1.4600161 0.65012324 0.0029966661
1.4593551 0.922993 0.0049995817
1.4434189 0.97510958 0.003623741
1.4535022 0.81726891 0.0041269059
1.4895022 0.2202744 0.0050333962
1.4429166 1.2459663 0.009777125
1.4880376 0.089578256 0.0024513393
1.4652512 0.50401717 0.0019741757
1.4707325 0.41200823 0.0022107344
1.4587628 0.63111836 0.0020614087
1.4475579 1.7968245 0.023360319
1.4520743 0.89787155 0.0053785979
1.4730576 0.44279796 0.0036277801
1.4571587 0.66481143 0.0021356528
1.4623945 1.0013329 0.0087214233
1.4598122 0.60670584 0.0019611926
1.4610503 0.58555394 0.0020129925
1.4719577 0.42440307 0.0028846043
1.4823023 0.22210564 0.0027584713
1.4001095 2.1315413 0.014498851
1.4717695 0.70798302 0.0081047621
1.4594321 0.61641121 0.0020162787
1.4521052 0.81236249 0.0030812204
1.4552916 0.89289206 0.0037989819
1.4398612 1.1214366 0.0032057299
1.4522486 0.655913 0.0022575406
1.476794 0.31272703 0.002503369
1.4332384 1.2226279 0.0053334427
1.4420583 0.9536587 0.00252824
1.4590999 0.68920422 0.0034831164
1.47347 0.37621143 0.0025075274
1.4096234 1.597949 0.0045425473
1.4671947 0.37073654 0.0022156897
1.5156509 0.28259316 0.0097015193
1.4504071 0.79946196 0.0023775436
1.4817708 0.20915858 0.0023815816
1.4733784 0.37025321 0.0023695249
1.4360139 1.1922224 0.0033547762
1.4786582 0.27989313 0.0025530746
1.4569117 0.58006591 0.0020147597
1.4717302 0.40050599 0.0023460034
1.4533483 0.86575258 0.0031248981
1.4826417 0.31932026 0.0045582266
1.4593885 0.62458533 0.0021677637
1.4289142 1.2619632 0.0043413029
1.4596369 0.61572915 0.0020827209
1.4441011 0.97075427 0.0038308145
1.478487 0.32280806 0.003249764
1.427749 1.2474625 0.0037712122
1.4228808 1.3324822 0.0034973342
1.480672 0.23487163 0.0024497728
1.3979654 1.8207841 0.0048032664
1.4215865 1.1204476 0.002670848
1.4510195 0.70255852 0.0021402284
1.4536648 0.58293039 0.0023928043
1.4374624 1.1321411 0.0033467985
1.4101712 1.5819969 0.0040248269
1.4493501 0.71348566 0.0020648544
1.466897 0.66069639 0.0051981462
1.4785004 0.27457857 0.0024112039
1.4280736 1.2278252 0.0031758556
1.4619986 0.58463633 0.0021291978
1.4532001 0.82062346 0.0040777959
1.4241198 1.3786439 0.0036934437
1.4414455 1.064147 0.0031125701
1.437175 1.0538369 0.002931607
1.4905601 0.39763635 0.0080682198
1.4945432 0.069096491 0.004197224
1.4791781 0.31947619 0.0028877831
1.4322615 1.2211723 0.0048536113
1.469188 0.46809471 0.0027297458
1.4574986 0.68217659 0.0027209949
1.5322868 1.1352786 0.021261502
1.4872702 0.098888338 0.0023592853
1.4721942 0.38903072 0.0023005623
1.4769881 0.3098084 0.0025172199
1.4723215 0.44691217 0.0027579549
1.4605492 0.52022809 0.002014766
1.4357839 1.0855809 0.0048192628
1.3985145 1.8091813 0.0046985717
1.4732703 0.35639748 0.0020819672
1.4333837 1.1294153 0.0031493856
1.4602807 0.59085661 0.0018392053
1.4819343 0.22550184 0.002703455
1.4855688 0.14250161 0.0025109309
1.4647418 0.62720728 0.0043058572
1.3659446 2.7984157 0.01748061
1.432698 1.012686 0.0022209773
1.4418547 1.0089726 0.0037876267
1.431006 1.1855807 0.0037433419
1.4505702 0.79834068 0.0024291282
1.4983815 0.20791431 0.0072521991
1.4594196 0.66053367 0.0029865853
1.4594971 0.74594146 0.0031349619
1.4484471 1.3008579 0.0067773233
1.4193023 1.4082991 0.0039611268
1.4552736 0.74726605 0.0032676714
1.4832829 0.16708027 0.0021655895
1.4430605 1.0119867 0.0034660543
1.4537719 0.92383093 0.005587786
1.4122965 1.7620445 0.01024902
1.476185 0.29397419 0.0019660338
1.4460828 0.97719365 0.0029897508
1.4716246 0.3916072 0.002034741
1.4646007 0.76451641 0.0069374065
1.4676805 0.46533397 0.0021188825
1.4805447 0.25988254 0.0034767685
1.4061339 1.6612344 0.0043489197
1.4481133 0.74380696 0.0021116941
1.4483315 0.63406676 0.0022573345
1.4595306 0.65527171 0.0028689119
1.4730445 0.34534061 0.0018613164
1.4488286 0.86452907 0.0032899012
1.4374471 1.0573356 0.0032929026
1.4698459 0.39962238 0.0019867891
1.4696249 0.42861283 0.0021386086
1.4720503 0.35949707 0.0018027674
1.4653842 0.51047629 0.0023256075
1.4793334 0.2610448 0.002457547
1.4625748 0.56912202 0.0022631458
1.4710335 0.38449219 0.0018535121
1.463061 0.51627856 0.002112319
1.4896564 0.080052473 0.002808111
1.4691103 0.4510372 0.0026928622
1.4291232 0.26565632 0.0019453426
1.4886096 0.15078118 0.0039191647
1.4757562 0.36365804 0.0030665721
