# .PCD v0.7 - Point Cloud Data file format
VERSION 0.7
FIELDS x y z
SIZE 4 4 4
TYPE F F F
COUNT 1 1 1
WIDTH 59
HEIGHT 1
VIEWPOINT 0 0 0 1 0 0 0
POINTS 59
DATA ascii
0.0096666142 0.074883632 -2.9639709
0.0096664568 0.074883088 -2.9639525
0.007803238 0.075188279 -2.9756501
0.0096570449 0.074885018 -2.9640248
0.0098570762 0.07485304 -2.9627957
0.0096669085 0.074882925 -2.9639468
0.0099159488 0.074844785 -2.9624736
0.0077407551 0.07519988 -2.976089
0.010240736 0.07485152 -2.9624805
0.0097840773 0.074866235 -2.9632964
0.0099284565 0.074844621 -2.9624596
0.00976294 0.074867576 -2.9633567
0.0099282917 0.074844062 -2.9624405
0.0099159433 0.074845992 -2.9625149
0.0099156145 0.074844867 -2.9624767
0.0097869579 0.074864291 -2.963228
0.0097729163 0.074869312 -2.9634092
0.0099211456 0.074846119 -2.9625156
0.0098322183 0.074860036 -2.9630518
0.0098466482 0.074856363 -2.9629164
0.0096711311 0.074881844 -2.9639068
0.009778847 0.074868381 -2.9633734
0.0098322183 0.074860036 -2.9630518
0.009778847 0.074868381 -2.9633734
0.0099207507 0.07484477 -2.9624698
0.0098536583 0.074857019 -2.962934
0.0098530911 0.074855074 -2.962868
0.0097896159 0.07486704 -2.96332
0.009169152 0.07496208 -2.9669905
0.0097463476 0.074871771 -2.9635115
0.00968228 0.0748818 -2.9638975
-0.025090884 0.037441738 -2.9287751
-0.024915187 0.049941774 -2.9137635
-0.032238219 0.051740739 -2.9641747
0.086835884 0.043478623 -2.2881515
-0.024618125 0.034446456 -2.9123487
0.11281896 0.034179196 -2.1600509
0.27030778 0.55833924 -2.1062186
0.050640605 0.21760608 -2.4974699
0.11865709 0.094639935 -2.1472623
0.038347438 0.061037157 -2.5520122
0.11825474 0.094284706 -2.1399693
0.11338284 0.062801078 -2.1723855
0.11269385 0.036197353 -2.1609817
0.05182638 0.044929061 -2.4881248
0.044578582 0.16776045 -2.5646935
0.1158413 0.11781579 -2.1656315
0.076039612 0.1302105 -2.3909357
0.082425416 0.19385578 -2.3199627
-0.021198299 0.062719509 -2.8803818
0.047903892 0.13343735 -2.5507879
0.07603512 0.13538809 -2.3901906
0.048002079 0.24327739 -2.5341313
0.11497305 0.093450069 -2.1509984
0.086521663 0.12223112 -2.3383956
0.085332774 0.19240744 -2.2988231
0.054013606 0.24929267 -2.5054369
0.028622082 0.041353751 -2.640137
-0.013688874 0.060226593 -2.8749716
