# .PCD v0.7 - Point Cloud Data file format
VERSION 0.7
FIELDS x y z
SIZE 4 4 4
TYPE F F F
COUNT 1 1 1
WIDTH 200
HEIGHT 1
VIEWPOINT 0 0 0 1 0 0 0
POINTS 200
DATA ascii
-0.15070698 -0.10004509 4.4562888
-0.15377097 -0.074902929 4.2997441
-0.27349931 -0.20101054 4.4042912
0.94990546 -0.18841659 4.7063384
-0.86521119 0.52558857 4.12114
1.2981793 -1.1296766 4.9615355
-0.13604386 0.31202984 4.2662807
-0.15566047 -0.26934373 4.3882136
0.86587977 0.3572785 4.3807716
0.40898278 0.34090394 4.3296313
-1.5530647 -0.066691794 4.5663266
0.029446587 -0.65689009 4.5135717
2.035954 0.052339941 4.9786077
-0.55305034 -1.0975349 4.3404193
0.25958785 -1.1100065 4.4756608
0.24649662 -0.99136376 4.6441894
-0.59755468 0.15544651 4.3863029
-0.73156035 0.52628088 4.1359882
-0.19092372 0.5254972 4.1841235
0.063926846 0.52948654 4.2056832
0.16603255 -0.35756162 4.4965358
0.2627303 -0.6634751 4.54146
1.6444925 -0.77380174 4.9822969
0.3605614 0.38650969 4.3190794
0.16951165 0.081029601 4.4836311
0.3230626 0.92597771 3.2369225
1.0924264 0.38904503 4.405128
1.0229995 -0.1425681 4.6001639
0.44588447 0.38796356 4.3316655
-1.7214564 0.54871553 4.4383292
0.35609856 -0.35685602 4.6244879
0.17461596 0.12787293 4.4848323
-1.3049146 0.3780244 4.1289763
1.9692322 -0.26998466 4.9528165
1.6713794 -0.0038876883 4.9629917
0.81358403 0.38831878 4.3785439
1.3525805 -0.38585499 4.910521
1.7289582 -0.04315168 4.939712
-1.2759309 0.11914482 4.3382497
1.6635443 0.18955843 4.9149709
-0.0076332693 0.38038769 4.2807918
0.48427239 0.60179096 3.3985114
1.0776856 0.64813286 4.3690958
-0.94641 0.30508694 4.1895094
1.8099302 -0.39539045 4.9762607
0.15114395 0.48332855 4.3057685
-0.31962681 -0.91828734 4.4566898
0.38548759 0.56539148 3.3059988
0.94220918 -0.60186774 4.8894262
-1.9331509 -0.44440436 4.5947976
0.079850733 0.38066444 4.2888918
1.0159004 0.36011335 4.3955073
1.0679713 -0.42720678 4.5303502
0.035791546 0.33494696 4.2880425
-0.48343837 0.13472739 4.4245472
1.9036393 0.82033002 4.8918471
-0.67343169 0.29953736 4.2294827
0.67504483 0.30880976 4.3580513
0.10497162 0.91087759 3.2137184
1.4258294 0.1123917 4.9118824
-1.0411804 0.52201909 3.9242959
0.17791194 0.91505253 3.2250125
-1.9859649 0.14324978 4.5472269
-0.37211654 -0.46440712 4.4501829
0.46193159 -0.33924079 4.6394897
0.45520219 0.97920942 3.2854033
1.4251873 0.35998908 4.9196262
0.39310724 0.8421858 3.2977173
1.9474988 0.84237999 4.9187884
-0.55351949 -0.30074143 4.4264808
-0.75631398 0.30475321 4.2001038
-0.54981196 -0.0047985646 4.4184542
-0.040495619 0.91219229 3.1996031
0.12669998 -0.25073487 4.494132
-1.9533812 0.5456093 4.5184512
1.0540513 0.31212702 4.4058971
0.85083193 -1.0705827 4.8977833
0.66683966 0.42330596 4.3586235
0.48950255 0.42249423 4.3262315
1.6267691 0.46290293 4.8979359
1.4573313 0.4759694 4.895329
0.48522452 -0.16169298 4.6123137
1.0398281 0.35958686 4.4051166
-0.076007515 0.37028453 4.2638798
0.43308955 0.74346763 3.3239264
1.2331344 -0.19414522 4.8888068
1.9341586 -0.84310275 5.0306563
1.3338145 0.058680598 4.8936057
-0.3699744 -0.73781472 4.4299989
0.45054382 -0.57035422 4.6574078
-0.6353547 0.37696865 4.2121601
1.8325045 0.81591737 4.9063668
1.2982718 -1.0621555 4.9451523
0.39047933 0.83108813 3.2981169
0.12481745 0.66685146 3.2746944
1.3801069 0.44110245 4.864522
-0.25903818 -0.66059434 4.5743852
-0.31462786 0.87665588 3.1773894
1.7942663 -0.61986679 4.9936161
1.7483132 -1.3424697 5.0197639
1.7739017 0.82580024 4.9069862
0.25531173 -0.47075239 4.5451336
1.6492761 0.62073612 4.895247
2.1043854 0.027385252 4.96737
-0.5241816 0.89708215 3.1514769
-0.5050081 -0.027418166 4.4018207
-0.040744506 0.70252019 3.2539015
1.8351707 -1.0096873 5.0410895
1.5368571 -0.98109281 4.9882803
0.27519551 0.35788172 4.2982759
-0.86843425 -0.22533433 4.4589882
-1.2933536 0.1680453 4.3249412
2.0774243 1.0976433 4.8498602
-0.82576388 -0.66877228 4.4556069
0.12712127 0.80177569 3.2666533
0.12648715 0.75079471 3.268225
1.5141474 -0.3592999 4.9291387
1.4928988 -0.39386258 4.9210281
2.0966256 0.051781002 4.9723949
0.026444117 0.41818976 4.2623568
1.7286214 -0.66226393 4.9772034
1.5920799 0.64804947 4.9004188
0.37432736 -0.72243875 4.6320643
0.6446296 0.37900925 4.3466897
-1.7905918 0.3558085 4.5529609
-0.32986787 0.60568482 3.2298458
0.67078584 -0.082404524 4.6545935
1.4714323 -1.3787882 4.9755454
0.21678473 -0.31365055 4.534173
1.9780747 0.49441493 4.9278231
-0.37606052 0.60123903 3.2172928
0.56718588 -0.34559429 4.723577
-1.4493021 -0.91135132 4.6101465
2.0276687 0.10203311 5.0030408
1.5240078 0.025934082 4.9177217
0.18570338 0.59891361 3.2829947
1.5958064 0.42446724 4.9105482
0.35881507 0.68519562 3.2966621
-0.23519062 0.55048853 3.2326505
0.90827817 0.43588766 4.3821168
0.98695761 -0.71137607 4.8905616
-1.8819222 0.27178729 4.5150256
-1.0861707 -0.92130339 4.6715713
-0.054916535 0.30593988 4.2857385
-1.2882607 0.23444417 4.2822452
-0.56998688 0.71668857 3.2050135
1.5878025 0.74803251 4.9511924
0.17100908 0.68206239 3.2810342
1.4738034 -0.58304459 4.9619479
1.3989148 -0.62424225 4.9558568
-0.4835116 0.45795277 4.1378646
1.8205072 0.48104396 4.8602448
-1.9150205 -0.015321826 4.5676737
0.065546446 0.59705895 3.2775335
-0.44428712 0.78575957 3.1926529
0.56423837 0.26450473 4.3751855
0.75996441 0.4612067 4.3637524
1.7822126 0.5135783 4.8817935
-0.40361911 0.55097961 3.2214611
0.14142281 0.65994638 3.264627
-0.50310844 0.96363121 3.1472385
-0.40787709 0.47287744 4.1978765
-0.35118851 0.64616472 3.2191687
2.128464 0.29706258 4.9565892
-1.7378114 0.25145742 4.4676967
1.4097781 0.16819127 4.8958817
0.33162609 0.88750517 3.2635291
0.89944518 0.38607919 4.3869271
0.055746265 1.0392382 3.153084
1.5606313 -0.84838897 4.9778867
0.52996528 0.3005642 4.3005419
0.19531365 0.073189728 4.4773579
-0.13027616 0.81457865 3.2357156
0.083123647 0.66860181 3.255769
-0.076886952 0.57938844 3.2566578
2.1389825 -0.77785355 5.0369792
-0.41060141 0.58668548 3.2135823
-0.067525476 0.052973561 4.3340116
0.68711483 -0.12858859 4.6734405
-0.2364753 0.76500583 3.2244353
1.0133071 0.69980454 4.3629599
2.0926492 -0.6107043 5.0392971
-0.53104383 0.54847997 3.2146418
1.2929568 -0.80242097 4.9614763
1.7861623 -0.49259278 4.956172
-1.8780334 0.50980085 4.5218358
0.91759741 -1.0999607 4.9306569
2.1074524 0.074127495 4.9417934
-0.22396758 0.4485673 4.2538514
0.60607052 1.0036776 3.4459629
1.6789242 -0.90276742 4.9746838
0.23311907 0.80548131 3.2890387
-0.85570335 0.2488676 4.3862185
0.6590445 0.45614344 4.3462124
1.3507756 -0.55038083 4.923317
2.1826372 -0.06309142 5.0135498
0.076865941 0.76571155 3.2620707
0.11488913 0.24500366 4.3755231
0.23603745 0.9789539 3.2269099
0.32734525 0.041309103 4.6073346
