# .PCD v0.7 - Point Cloud Data file format
VERSION 0.7
FIELDS x y z rgb
SIZE 4 4 4 4
TYPE F F F F
COUNT 1 1 1 1
WIDTH 1035
HEIGHT 1
VIEWPOINT 0 0 0 1 0 0 0
POINTS 1035
DATA ascii
-1.3660418 0.10466856 3.714752 4.3285325e-39
-1.5854847 0.095080756 3.556124 9.6766217e-39
-1.0753983 0.1256482 3.906472 8.479861e-39
-1.6298751 0.10587446 3.5239239 7.9252663e-39
-1.6510077 0.10605773 3.5154324 1.1337215e-38
-1.6001381 0.11004768 3.5521958 5.5317574e-39
-1.3603376 0.12163958 3.7144318 1.0691483e-38
-1.1539233 0.12975834 3.851963 9.673721e-39
-1.4579604 0.12222935 3.6479223 6.2653736e-39
-1.3211294 0.12350671 3.7463725 1.0230867e-38
0.48497629 0.19540507 4.5633807 1.3352553e-38
0.72173685 0.20966896 4.7320504 4.3267248e-39
4.3493719 0.49683675 9.5381384 5.8083807e-39
1.2433931 0.2547189 5.4564767 1.253179e-38
-1.6189135 0.12656195 3.5341151 7.9263271e-39
0.081627943 0.18091016 4.2756848 1.2708624e-38
0.026980449 0.19222365 4.2412658 1.2544432e-38
0.41772762 0.2162386 4.5228701 6.6319799e-39
0.94677079 0.26923466 5.7100234 4.9717327e-39
0.58207208 0.21713369 4.6362414 6.2577968e-39
4.0583386 0.54916543 9.4428272 9.8671408e-39
4.4070239 0.51887149 9.5567122 1.2266752e-38
-1.5974679 0.13030815 3.5572035 9.7713327e-39
-1.4840866 0.14283936 3.6168931 3.6871456e-39
-1.2773253 0.15390995 3.7738035 9.6744357e-39
-1.1807212 0.16305132 3.8317266 5.3415928e-39
-1.4568788 0.14462441 3.6433513 1.1148491e-38
-1.1362611 0.15388028 3.8575747 7.9209124e-39
-0.11036298 0.19694406 4.1535697 7.0893623e-39
-0.03013397 0.19656022 4.2168908 8.5598121e-39
0.018234115 0.21073397 4.2473388 5.9830119e-39
0.0065451562 0.19905624 4.2361732 1.2613897e-38
0.8106721 0.24366465 4.7825027 1.3444743e-38
3.8743711 0.55136597 9.3556538 1.0512147e-38
-1.4361585 0.15815802 3.6552715 1.0871543e-38
-1.3917004 0.16504826 3.6924534 1.0410204e-38
-1.2917922 0.16426551 3.7550466 6.0806152e-39
-1.4840871 0.16069053 3.6123145 5.8984086e-39
-1.5747495 0.16084437 3.554435 1.0322728e-38
-1.3234359 0.17186657 3.7335773 8.2021839e-39
-1.1041763 0.19045468 3.8838911 7.9256082e-39
-0.41623536 0.21069953 3.9363675 6.7194938e-39
-1.6403267 0.17062972 3.5149155 1.0228349e-38
-1.4305061 0.17755234 3.6646519 7.5535789e-39
-1.3596253 0.18486191 3.7151871 8.9419279e-39
-1.3380727 0.1907212 3.7268183 9.5844177e-39
-1.1443167 0.20524625 3.8489876 5.9887699e-39
-1.2258766 0.19420275 3.8002253 7.7422959e-39
-1.1347041 0.20611615 3.8554893 8.1060254e-39
-0.32147428 0.23188353 4.006084 1.0682119e-38
-1.6013435 0.18787375 3.5412495 8.5717077e-39
-1.5042248 0.18997459 3.5958622 1.402139e-38
-1.1966821 0.21865264 3.8144045 8.9357902e-39
-1.5536914 0.19094379 3.5662618 5.7100853e-39
-1.5308473 0.1901706 3.5747406 1.4019592e-38
-0.39119643 0.23633093 3.9693038 9.4842963e-39
4.2008896 0.762519 9.4581118 2.3949396e-39
-1.638092 0.19214068 3.5192885 6.6363183e-39
-1.5414392 0.19914237 3.580972 5.2519461e-39
-1.4765581 0.20674536 3.627435 6.3590112e-39
-1.2989696 0.21475217 3.745544 7.7372485e-39
-1.3151597 0.21669582 3.7359943 8.3818976e-39
-1.4087603 0.20561965 3.6689937 9.8588283e-39
-0.79212725 0.22153389 3.6765122 5.2508335e-39
-1.15986 0.23599966 3.8394275 5.1568456e-39
-0.59855145 0.23473895 3.8093905 9.4828375e-39
-0.61417812 0.23381959 3.7968793 1.2522066e-38
-0.057369664 0.2922785 4.1949596 9.8534361e-39
0.65989339 0.31549942 4.3511748 1.1967453e-38
-1.634632 0.20273913 3.5177548 7.373533e-39
-1.3721181 0.22892015 3.6930449 9.6737196e-39
-1.1567131 0.25105074 3.8474712 8.1081862e-39
-0.8105557 0.24654528 3.6607866 8.3808088e-39
-0.21013905 0.29177749 4.0778728 1.2797931e-38
0.34931573 0.34244677 4.4534178 1.5012074e-38
0.74478787 0.32637295 4.1839623 1.5384824e-38
-1.5213953 0.22925441 3.5912929 5.9895028e-39
-1.5552952 0.22324973 3.5721188 7.0962175e-39
-1.5043225 0.22511682 3.6034491 8.4777128e-39
-1.4957699 0.23041569 3.607305 7.0944224e-39
-1.4681774 0.22745349 3.6329117 1.0043588e-38
-1.3728713 0.23961645 3.6947479 7.3702624e-39
-1.103717 0.26497981 3.885694 4.4221616e-39
-0.78627717 0.25479755 3.6778827 1.1323872e-38
-0.5842067 0.27600276 3.8220315 1.1232754e-38
-0.54904085 0.27589044 3.8437045 1.2335864e-38
-0.074978404 0.32576489 4.1739092 1.2152561e-38
-1.5629964 0.24357837 3.5646133 8.480591e-39
-1.5844797 0.23316708 3.5511935 5.7143592e-39
-1.3840361 0.25573307 3.6872213 9.3056532e-39
-1.2683368 0.26703748 3.772378 8.01888e-39
-1.2475431 0.25965822 3.7816682 4.3292499e-39
-0.80934316 0.27287158 3.6630557 3.1303298e-39
-0.5999068 0.28745097 3.8107877 1.160082e-38
-0.55503196 0.28777397 3.8423536 5.8022136e-39
0.50135088 0.37726149 4.5138283 8.1031513e-39
-1.3926104 0.27026361 3.6939125 3.8697137e-39
-1.1944506 0.27989915 3.8292136 5.066822e-39
-1.3727833 0.26803532 3.7022011 9.2156281e-39
-1.1741961 0.28619802 3.8436544 5.1586603e-39
-1.1637862 0.28640816 3.8474984 7.188776e-39
-1.600497 0.25272852 3.5398872 6.358658e-39
-1.4688289 0.26929399 3.6409202 7.466788e-39
-1.3964199 0.28313667 3.6816573 7.2791682e-39
-0.82383406 0.29446268 3.6521575 5.8050891e-39
-0.71643591 0.29799625 3.7300305 5.154682e-39
-0.72793561 0.30334416 3.7293658 9.2134505e-39
-1.6258625 0.26299495 3.525116 9.5840463e-39
-1.4227288 0.29281607 3.6652491 9.3964097e-39
-1.4305103 0.28397045 3.6574833 6.6348666e-39
-1.1553252 0.3147248 3.8372643 4.3288828e-39
-1.1031015 0.32345846 3.8758621 6.4511914e-39
-1.2231891 0.3125979 3.7932942 4.3292528e-39
-1.319253 0.30680645 3.738652 5.251209e-39
-1.6312655 0.28228796 3.5261643 1.1429406e-38
-1.6469138 0.2795831 3.5159259 6.9107416e-39
-1.5680858 0.29042777 3.559489 1.0231235e-38
-0.79888254 0.31899333 3.6723454 9.6726294e-39
-0.82898384 0.32295877 3.6454339 6.8152753e-39
-1.6313829 0.29091671 3.5195308 9.30567e-39
-1.5938419 0.29998836 3.5435562 7.8334224e-39
-1.2256474 0.33971694 3.7909546 4.6976765e-39
-0.82911122 0.33486018 3.6469228 9.3005973e-39
-1.4616596 0.32669789 3.6336465 6.9118136e-39
-1.2816575 0.34564623 3.7558844 7.1866068e-39
-1.2304689 0.35685697 3.7959325 3.2232527e-39
-0.12551776 0.32747528 3.2155797 7.913351e-39
-1.634526 0.31600115 3.5153325 1.1055575e-38
-1.5374098 0.32579979 3.5796292 1.041418e-38
-1.4626452 0.3374044 3.6329794 8.7550199e-39
-1.5617836 0.32026127 3.5664868 1.0874801e-38
-1.3252832 0.35998681 3.7340398 8.7560891e-39
-1.3625605 0.34428486 3.6961255 5.8040255e-39
-1.2074631 0.36534077 3.8146429 6.9136115e-39
-1.1080931 0.38286924 3.8745072 6.8167299e-39
-0.24458221 0.35083461 3.4295342 6.4407349e-39
-1.5477248 0.33703896 3.5753548 6.5419591e-39
-1.3437448 0.36702514 3.7192614 8.3865891e-39
-1.5162064 0.34593412 3.5926011 7.0962203e-39
-1.4084251 0.35753104 3.6676512 9.951031e-39
-1.1970329 0.38495386 3.8252549 5.6181923e-39
-1.1266701 0.39315635 3.8611369 4.7916658e-39
-1.6097624 0.34194231 3.5338352 1.1151013e-38
-1.5078696 0.35456598 3.5987978 1.0967347e-38
-1.5775199 0.34581104 3.5569091 7.5564795e-39
-0.85190356 0.37489718 3.5674047 9.4810355e-39
-1.6017658 0.35832623 3.5435374 6.1760478e-39
-1.5117584 0.36333668 3.5972066 7.6468507e-39
-1.4070551 0.3812212 3.676054 6.6348778e-39
-1.1309278 0.42046651 3.8610289 4.605841e-39
-1.1038536 0.42253914 3.8763723 6.6341393e-39
-1.4951193 0.3865647 3.6058369 9.0330474e-39
-1.2986394 0.40786383 3.7419665 1.0870818e-38
-1.1755283 0.42354012 3.8348222 6.4483089e-39
-1.4254873 0.39243072 3.6582589 1.0044311e-38
-1.1295753 0.43031549 3.8616049 7.8337685e-39
-1.5507457 0.39103597 3.5715606 8.4802351e-39
-1.4375757 0.40015122 3.647429 1.0322343e-38
-1.457464 0.40325719 3.6303804 6.8174614e-39
-1.5051616 0.41513306 3.6020548 8.5691881e-39
-1.3879226 0.42092159 3.679383 9.0265369e-39
-1.5256946 0.4102214 3.5853422 6.2653708e-39
-1.2397097 0.44370329 3.7852943 8.2951068e-39
-1.1226684 0.46841964 3.8674216 4.1441328e-39
-1.0927863 0.46375737 3.8850167 3.683519e-39
-1.0822283 0.47268778 3.8923004 3.1321389e-39
-0.78118014 0.44967946 3.664741 6.0762684e-39
-1.5923606 0.40586811 3.5397758 6.6345162e-39
-1.6001709 0.40818256 3.5329828 7.1902138e-39
-1.4881443 0.41805586 3.6120057 9.2163582e-39
-1.4211125 0.43957004 3.6584218 9.6740741e-39
-1.5603395 0.42668992 3.5619318 8.9401329e-39
-1.206668 0.47809196 3.8057098 8.1085589e-39
-1.062656 0.49757835 3.8986299 5.3459116e-39
-0.34171662 0.49692887 3.6267507 5.6142098e-39
0.018888483 0.47659749 3.402705 5.0617661e-39
-1.6045743 0.43463024 3.5372894 1.0508898e-38
-1.5625727 0.43709096 3.5580337 7.4632007e-39
-1.5383464 0.44239062 3.5762181 6.91075e-39
-1.5461684 0.43614662 3.5732698 9.1266821e-39
-1.2925814 0.47786734 3.7534194 7.8323336e-39
-1.5523564 0.44557643 3.5648005 9.4925864e-39
-1.5834631 0.44702995 3.5570579 9.2177988e-39
-1.4506245 0.46842518 3.6367905 8.5727895e-39
-1.4760913 0.46592313 3.6162605 6.6341547e-39
-1.5570488 0.45978513 3.5617707 8.5717091e-39
-1.4771031 0.48353815 3.6194177 4.6087235e-39
-1.633347 0.4542155 3.5171108 6.7270804e-39
-1.4035087 0.49050406 3.6751418 9.6751644e-39
-0.75975084 0.52122235 3.6841185 8.1931679e-39
-0.74251819 0.52598614 3.696924 7.5539306e-39
-0.62846571 0.53845608 3.7700279 3.5931128e-39
-0.36007145 0.53673887 3.6514218 3.3132791e-39
-1.5268822 0.47590277 3.5839496 9.5840561e-39
-1.4778155 0.49393049 3.6176567 1.0412732e-38
-1.4970845 0.48166674 3.6034908 6.6334288e-39
-1.0742005 0.55045283 3.8875887 5.6181783e-39
-0.73325479 0.5416978 3.6989725 4.1455691e-39
-1.5263349 0.500489 3.587811 1.0043224e-38
-1.4695659 0.50877106 3.6254377 1.0321623e-38
-1.4677709 0.4984144 3.6233842 7.9230816e-39
-1.2750558 0.53709954 3.7491908 7.4610147e-39
-0.74673289 0.55150557 3.6903126 3.8682578e-39
-1.2228284 0.55013978 3.7871327 8.0145458e-39
0.079785086 0.54304022 3.3930659 9.3899244e-39
-0.011330613 0.53679574 3.4047456 5.6124133e-39
0.089842349 0.54853117 3.3923781 5.9848056e-39
-1.4743263 0.51682347 3.6195366 1.0137593e-38
-1.4453408 0.52681422 3.6400964 8.8479302e-39
-1.2769543 0.55410182 3.7581909 9.0283432e-39
-1.4530464 0.52370876 3.6323917 6.5419647e-39
-1.2343736 0.56095052 3.7841368 7.8312377e-39
-1.265735 0.54941541 3.7610347 6.4472187e-39
-1.4544028 0.51480663 3.6333756 1.1057018e-38
-0.70144635 0.57516134 3.7184072 6.2628176e-39
-0.62213457 0.5885008 3.7763119 7.3641359e-39
-0.33215374 0.57919335 3.6165197 4.1390867e-39
-0.3019093 0.57293552 3.5729532 6.9024319e-39
-0.079034798 0.55000174 3.413204 6.0744775e-39
-0.11151152 0.54862088 3.4171784 8.3757641e-39
-0.025381107 0.55029047 3.4068563 5.1521555e-39
0.031934839 0.54808491 3.3995287 5.4280235e-39
0.52936816 0.62201697 3.6235714 1.1695544e-38
-1.5927441 0.51040739 3.5360134 8.2007658e-39
-0.62617677 0.59745651 3.7702019 2.6697174e-39
-1.4934787 0.52769375 3.6048207 1.0319446e-38
-1.2179912 0.57408053 3.7952998 6.2617442e-39
-0.46338353 0.60744512 3.7803938 5.8897149e-39
-0.36189431 0.59642214 3.6526215 3.9568521e-39
0.36312377 0.60307473 3.5002155 1.1787749e-38
-0.34223434 0.59769177 3.6296597 3.4047573e-39
-1.6292477 0.51809621 3.5259709 9.3070979e-39
-1.6069213 0.51842278 3.5337801 7.0011211e-39
-1.4315943 0.55461639 3.644465 8.847933e-39
-1.1555582 0.6038962 3.8414934 5.6207076e-39
-0.31219232 0.59915465 3.5906665 2.3931277e-39
-1.1793023 0.59566563 3.8176188 7.0011155e-39
0.12242036 0.5793153 3.385448 9.3910076e-39
-1.2418555 0.59505308 3.7783444 5.9862447e-39
-1.1783419 0.61831731 3.8239558 7.4646188e-39
-0.078816682 0.58580333 3.4114432 4.7848177e-39
-0.069091663 0.58836681 3.4110229 8.7445508e-39
-1.5762718 0.5498237 3.5539017 1.0043583e-38
-0.010051858 0.59802276 3.4048753 6.1634319e-39
0.018832609 0.59566313 3.3989635 7.0843078e-39
-1.4964119 0.56320614 3.6039853 1.0135422e-38
-1.3865081 0.58060819 3.6834369 8.8457568e-39
-0.79530871 0.61741614 3.6504159 4.5093126e-39
-0.77055502 0.61613142 3.669512 9.3005987e-39
-0.36137095 0.64233422 3.6548269 6.6265667e-39
-0.65707821 0.63349098 3.745096 4.6025928e-39
-0.66460985 0.64264864 3.7428343 7.7321968e-39
-1.3528651 0.61270887 3.7152715 7.4664293e-39
-0.36186561 0.65250635 3.6492012 2.578235e-39
-0.69599801 0.64372456 3.7200782 7.73291e-39
-0.076479785 0.6140278 3.4128895 9.9420178e-39
-0.10044411 0.61842918 3.4152622 8.9289449e-39
-1.6201106 0.56542414 3.5227852 1.0596032e-38
-1.5731341 0.57234675 3.5511079 1.0411652e-38
0.32141015 0.65610021 3.4733338 6.4418335e-39
-1.4839642 0.59412134 3.6154897 6.2650107e-39
-1.3324244 0.63014132 3.7225645 8.2054377e-39
-1.2802125 0.63359368 3.7479746 5.0660961e-39
-1.5402094 0.58998758 3.5763977 7.7397792e-39
-0.54125339 0.69455361 3.8277442 2.3038117e-39
-0.024002085 0.63380289 3.4037187 4.785538e-39
-1.6166489 0.57446355 3.5234222 7.7394093e-39
-1.5331856 0.59732926 3.5805089 9.8595528e-39
-1.5160677 0.59424752 3.5923383 7.003289e-39
-1.4342427 0.62630588 3.657043 5.0704107e-39
-1.3314689 0.64450991 3.7133267 9.2149037e-39
-1.6006372 0.60636336 3.533339 5.4359632e-39
-1.536902 0.622033 3.5858881 4.5143629e-39
-1.1795844 0.69156194 3.817935 6.2657141e-39
-1.604597 0.61492425 3.5357146 8.2018321e-39
-1.5881838 0.62366515 3.5425835 8.0174395e-39
-1.5338721 0.63856393 3.5807161 6.9128982e-39
-1.4621868 0.65222943 3.6276379 8.475531e-39
-0.75443965 0.70559651 3.6705637 9.9470667e-39
-1.089092 0.7231431 3.8613789 6.0802354e-39
-1.5518426 0.64007354 3.5635433 6.6341519e-39
-1.4481564 0.6707077 3.636029 9.9506638e-39
-1.5468246 0.65650439 3.5667744 6.8174642e-39
-1.240135 0.72365689 3.7654335 9.3078182e-39
-1.4249973 0.67861062 3.6527867 4.97642e-39
-1.1372956 0.73626631 3.8130009 4.9774878e-39
-1.5171987 0.6785205 3.5900588 6.7241657e-39
-1.3329667 0.71549606 3.7102556 5.990572e-39
-0.65143013 0.75330025 3.7032268 6.1691871e-39
-1.1496516 0.74772906 3.792675 4.9774906e-39
-0.22892529 0.71898478 3.4383028 1.0681393e-38
0.20332401 0.72941291 3.3348348 9.757272e-39
0.75306785 0.83599722 3.5944686 1.1071498e-38
-0.37614614 0.75414252 3.607228 5.7074872e-39
-1.5755585 0.67756754 3.543674 5.9884182e-39
-0.76455635 0.74709243 3.6322522 4.3267136e-39
-0.62359196 0.78094834 3.7211583 2.7644284e-39
-1.6266761 0.66977215 3.5120342 6.1735381e-39
-1.5946841 0.67793608 3.5321386 7.1873257e-39
-1.539435 0.69069225 3.5733311 8.8497309e-39
-1.3869957 0.72904134 3.6547341 6.912517e-39
-1.1589545 0.77405339 3.7592199 4.145223e-39
-1.1131361 0.78409821 3.7880278 2.6733173e-39
-1.1106608 0.77435005 3.7943957 5.7143298e-39
-0.20796196 0.74645317 3.3904178 4.140886e-39
-0.090643585 0.74240357 3.371453 4.5089441e-39
-1.4670478 0.7177586 3.6188262 4.0573448e-39
-1.454553 0.72788006 3.612041 6.4519186e-39
-1.1727679 0.78107411 3.7454803 3.4105264e-39
-0.8486594 0.75413316 3.563704 9.2069667e-39
-0.039829709 0.75818527 3.3638709 5.5223771e-39
-1.6346172 0.70152742 3.506963 6.3586398e-39
-1.6321287 0.69303507 3.5079627 8.9394028e-39
-1.5250115 0.71648145 3.581418 5.0704191e-39
-1.6000221 0.70450324 3.5304251 6.3593601e-39
-0.84852409 0.76428568 3.5601676 8.4697604e-39
-0.63470411 0.82166487 3.7090292 7.3648576e-39
-0.64738244 0.8139776 3.7011275 2.8573457e-39
-0.14499749 0.77279156 3.3777556 5.0628367e-39
-1.603124 0.71449137 3.5274708 6.5444716e-39
-1.2614754 0.77743125 3.688355 6.3611467e-39
-1.241999 0.78808433 3.698813 6.5422996e-39
-0.72399759 0.80478853 3.6489165 5.711083e-39
-0.034113478 0.78300887 3.3631585 7.8236707e-39
0.40521812 0.83591139 3.4524922 6.1789401e-39
-1.6463974 0.71651655 3.4987841 5.7150683e-39
-1.4753612 0.75310808 3.5702899 7.6497276e-39
-0.85349107 0.79132795 3.5622551 2.5800371e-39
0.077177018 0.80411518 3.3472712 8.2846545e-39
-1.306338 0.80083412 3.6540685 4.2402913e-39
-1.3534386 0.78639412 3.6210296 3.6871147e-39
-1.3477138 0.78192663 3.6274509 7.3727735e-39
-0.041607961 0.81846255 3.364676 6.3521364e-39
-1.4379034 0.77452576 3.5720038 5.8083387e-39
-0.81367904 0.82295281 3.5861952 6.8160026e-39
-0.031647995 0.82122296 3.3604965 4.5121867e-39
-1.362905 0.8035056 3.6130557 5.345913e-39
-1.5688887 0.77328193 3.4888372 1.0505994e-38
-1.3665177 0.81129521 3.6077852 8.2011049e-39
-1.4442836 0.80633813 3.5585775 5.0696919e-39
-1.4896767 0.81027526 3.5285265 3.5956478e-39
-1.4160475 -1.0175043 3.7014277 1.0594958e-38
-1.4374453 -1.0089993 3.6855409 5.803301e-39
-1.1046546 -1.1261243 3.9210455 1.1148858e-38
-1.1238357 -1.1316503 3.9007061 1.1794226e-38
-1.3856679 -1.0237991 3.7190905 1.0132187e-38
-1.2845821 -1.0584214 3.784821 9.3024218e-39
-0.88144386 -1.1807961 4.0643215 1.0408055e-38
-1.0428405 -1.1413249 3.9650064 5.4352374e-39
-0.79167259 -1.2330773 4.1250339 1.2344519e-38
-1.001255 -1.1527284 3.9846959 1.1144524e-38
-0.93214369 -1.1603462 4.0261955 1.271402e-38
-1.2676134 -1.0516639 3.7952914 1.1424004e-38
-1.0539572 -1.0927688 3.9442976 1.0501322e-38
-0.95267755 -1.1274527 4.0172348 5.1568456e-39
-0.90682524 -1.1696798 4.058392 1.1792068e-38
-0.76494855 -1.2000331 4.1377726 9.1176662e-39
-0.76424807 -1.1832743 4.1369672 1.1422561e-38
-0.56560558 -1.2254809 4.2109632 5.1525156e-39
-1.4739323 -0.96000451 3.6501007 1.1241421e-38
-1.4635241 -0.96605742 3.6591101 7.9227341e-39
-1.4033536 -0.98488617 3.7113323 6.6327156e-39
-1.3906131 -0.98141909 3.7206531 1.0136873e-38
-1.3781586 -0.97844183 3.7326705 1.0045037e-38
-1.3444051 -0.97961611 3.738992 1.0410215e-38
-1.2705697 -1.0241798 3.8096018 1.1054502e-38
-1.2956365 -1.0029494 3.7755857 1.0962299e-38
-1.0719256 -1.0814154 3.9416857 6.9103632e-39
-1.3801234 -0.99307692 3.7264426 7.8290839e-39
-0.88690513 -1.1202953 4.0603538 1.2806577e-38
-1.0467778 -1.0856129 3.9507108 8.106031e-39
-0.83730876 -1.1442665 4.0929294 1.1145611e-38
-0.86952507 -1.1327311 4.0740933 9.3042238e-39
-0.65712237 -1.1954664 4.212966 8.7535766e-39
0.85747021 -1.612013 5.2493234 1.0871914e-38
-1.2560791 -1.0019208 3.8105476 1.1145614e-38
-1.1139108 -1.0225443 3.9012313 9.7633985e-39
-0.95021272 -1.0890805 4.0096569 9.7644747e-39
-0.6964941 -1.1454573 4.1907411 1.0316569e-38
0.067106061 -1.2466611 4.2794538 5.059964e-39
0.14214475 -1.2435997 4.3328786 4.784459e-39
0.94763124 -1.624012 5.3076754 1.2531801e-38
-1.2455565 -0.97037601 3.8098011 9.9477842e-39
-0.97895783 -1.0391418 3.9911282 1.1977178e-38
-0.90445036 -1.0519582 4.0420694 1.1516919e-38
-0.80689663 -1.0836036 4.1097965 1.2806936e-38
-0.76881504 -1.0933404 4.1342006 1.04066e-38
0.1611383 -1.2325443 4.3388948 7.4592252e-39
0.66402274 -1.4942693 5.1098671 9.8545207e-39
-1.650076 -0.81495237 3.532553 7.8326895e-39
-1.4721644 -0.8620007 3.6482911 1.0229075e-38
-1.2843857 -0.9165442 3.7805638 1.1699871e-38
-1.0995685 -0.96452206 3.9151125 1.1427604e-38
-0.98752451 -1.0156875 3.9913363 1.1610196e-38
-0.77073932 -1.0516821 4.1341572 1.1613083e-38
-0.72890258 -1.077617 4.1745915 9.3946146e-39
-0.2663435 -1.0806371 4.1208491 1.1139493e-38
-1.6427901 -0.79645014 3.5381486 9.3993075e-39
-1.6284502 -0.80909306 3.5411699 8.753571e-39
-1.5034133 -0.8321566 3.6295233 1.0505657e-38
-1.5275342 -0.84030515 3.6096268 6.8178383e-39
-1.276379 -0.8956728 3.7921565 1.105378e-38
-1.3108426 -0.89560753 3.7624257 1.105486e-38
-1.5875123 -0.8099854 3.5734146 8.4755436e-39
-1.3392048 -0.89080936 3.7395213 1.0502408e-38
-1.106001 -0.95000106 3.9083176 9.0265467e-39
-1.042424 -0.96711177 3.946074 7.738326e-39
-1.0365628 -0.97278905 3.9608541 8.4726471e-39
-0.99793184 -0.96105433 3.9864428 8.2900621e-39
-0.97332394 -0.97359961 3.9990323 1.1054856e-38
-0.27810743 -1.0679458 4.1256075 4.6911801e-39
-0.42777967 -1.0550871 4.0990739 1.0220422e-38
-0.033275399 -1.1392487 4.3037529 8.0091648e-39
-1.6324129 -0.78568089 3.5398309 7.0940497e-39
-1.5774518 -0.7877292 3.5831409 6.5419535e-39
-1.427673 -0.83421326 3.6918435 1.1059541e-38
-1.108326 -0.92690033 3.904758 6.5405059e-39
-1.4119699 -0.82852435 3.7014914 1.0414904e-38
-1.2748061 -0.87770873 3.7844563 8.8410751e-39
-1.1479088 -0.90841907 3.8738699 1.0408776e-38
-0.90052426 -0.96239936 4.0407853 1.2530705e-38
-0.43678895 -1.020534 4.1101651 4.9674027e-39
-0.42164272 -1.009813 4.1233382 1.0862185e-38
-0.27304789 -1.0072991 4.1119275 4.416038e-39
0.68280232 -1.337859 5.1183729 1.1793874e-38
1.0793278 -1.476615 5.3858933 1.2528195e-38
-1.5898587 -0.77036053 3.5695357 6.3561203e-39
-1.5704184 -0.76405847 3.5861075 8.9376077e-39
-1.3428015 -0.83727807 3.7436943 1.0413466e-38
-1.1591274 -0.88200724 3.8683684 1.1606952e-38
-1.2990081 -0.82785416 3.781292 1.1336498e-38
-1.1243738 -0.88073879 3.8953483 1.1054855e-38
-0.91509312 -0.93829137 4.0416708 1.1610198e-38
-0.78266507 -0.94842011 4.1297665 8.8461324e-39
-0.85543323 -0.93388438 4.0818229 1.1515121e-38
-0.78151363 -0.96639687 4.1308579 6.9089325e-39
-0.34636208 -1.0146143 4.1664095 3.4044042e-39
-0.30903566 -0.98108453 4.1518955 7.177944e-39
-0.31437957 -0.9963842 4.1523867 7.8233204e-39
-0.281454 -0.9919318 4.1114473 9.4792362e-39
-0.26943883 -0.97941953 4.1141458 5.613135e-39
0.95821166 -1.3825879 5.3167109 1.1611644e-38
-1.5968219 -0.73251462 3.5677454 1.0874077e-38
-1.3978509 -0.77577949 3.7079163 6.1713745e-39
-1.4293495 -0.78557575 3.6819243 9.85632e-39
-1.1813482 -0.84295285 3.8561184 7.5514097e-39
-1.1285793 -0.8577643 3.8962054 1.0410566e-38
-1.3783004 -0.77608752 3.7152977 9.9492443e-39
-1.1427991 -0.84407139 3.8859069 5.1575687e-39
-0.99143463 -0.87168533 3.9835944 1.1053057e-38
-0.96442294 -0.89589202 4.0027647 1.0961227e-38
-0.27699468 -0.96247947 4.1181731 7.5470866e-39
0.95292234 -1.3443269 5.3145409 1.2348849e-38
0.87790924 -1.3072413 5.2549243 1.0227628e-38
1.08415 -1.3589504 5.3931875 1.2255215e-38
1.0070777 -1.3327394 5.3458629 1.2717993e-38
-1.3402206 -0.78344065 3.7397804 1.059605e-38
-0.81127763 -0.90380436 4.1056237 8.4733758e-39
-1.0842158 -0.82931721 3.9170809 9.9514051e-39
-0.9490853 -0.85820365 4.0086823 1.0683554e-38
-1.4118171 -0.71070641 3.6732082 5.8955079e-39
-1.4676157 -0.7182495 3.6517873 5.1582903e-39
-1.357843 -0.73681635 3.7325265 1.0871194e-38
-1.3891943 -0.74502927 3.7102349 1.1333977e-38
-0.90333229 -0.82716531 4.0484915 6.7241769e-39
-1.2647191 -0.75809681 3.7952323 1.10563e-38
-0.76521271 -0.88020962 4.1329241 7.3688247e-39
-0.95458728 -0.82422346 4.013165 6.1709989e-39
-0.87560791 -0.84510207 4.0646982 7.6436109e-39
-0.82293135 -0.84296507 4.0994635 9.6715602e-39
0.56990367 -1.1678129 5.039484 1.2348842e-38
0.57409281 -1.1487519 5.045682 9.0276327e-39
-1.5685033 -0.65767026 3.5817637 9.3960719e-39
-1.5983107 -0.66125214 3.5603204 1.013399e-38
-1.6344726 -0.65332556 3.5339084 7.6457787e-39
-1.5342625 -0.66567796 3.6059568 1.170132e-38
-1.2481223 -0.73317063 3.809947 1.09623e-38
-1.2876616 -0.73647183 3.7836409 1.077611e-38
-0.95973516 -0.78759056 4.0052018 1.2068651e-38
-0.93314976 -0.81181997 4.0262856 1.1057393e-38
-0.92334884 -0.79758996 4.0269952 1.0132543e-38
0.2086461 -0.93699616 4.4369082 5.6135008e-39
0.23380324 -0.94731021 4.4522901 1.1510794e-38
0.76618969 -1.1692405 5.1693068 1.234848e-38
0.74281228 -1.1450098 5.1692929 1.1797476e-38
1.1035174 -1.2261014 5.3913789 1.1054865e-38
-1.6152173 -0.63336676 3.5519896 1.0503854e-38
-1.5208702 -0.63687152 3.6135037 1.1241426e-38
-1.520648 -0.65115052 3.6138849 9.3042322e-39
-1.3478385 -0.67836803 3.7422302 1.0594967e-38
-1.3631688 -0.67842883 3.7244484 1.1516929e-38
-1.1913707 -0.71311969 3.8559391 1.1884255e-38
-1.1440071 -0.74029225 3.8767991 1.0870465e-38
0.1938789 -0.90208554 4.4402246 6.2563478e-39
1.1240674 -1.1563733 5.425478 1.2072263e-38
1.1673928 -1.1716094 5.4309597 1.216446e-38
-1.5774871 -0.61598694 3.5729804 1.0594607e-38
-1.554122 -0.61883032 3.5888934 1.0871917e-38
-1.5314945 -0.61602956 3.5965688 1.0502059e-38
-0.98258001 -0.71822149 3.9820166 8.9397601e-39
0.79680145 -1.053133 5.197289 1.124394e-38
-1.5585296 -0.58668166 3.5958562 8.199684e-39
-1.3231514 -0.61924255 3.7490466 1.1054856e-38
-1.211454 -0.65861267 3.8324416 1.1422201e-38
-1.1979425 -0.65522504 3.8375354 8.563405e-39
-1.189406 -0.64543718 3.8465402 1.1056298e-38
-0.94319445 -0.70560658 4.0140271 1.0039618e-38
-0.98650748 -0.70177543 3.9889598 1.1515839e-38
0.043240555 -0.83031625 4.4262829 1.1690859e-38
0.87044388 -1.0478446 5.2365584 1.2071176e-38
4.4195871 -2.0824585 9.5527945 1.438618e-38
-1.5418183 -0.57813251 3.6067343 4.6076403e-39
-1.3197176 -0.59514385 3.7519915 1.1792064e-38
-1.1070616 -0.63057619 3.9005575 1.1698072e-38
-0.88107651 -0.68114388 4.0424995 1.1332886e-38
-0.91164452 -0.69242632 4.0319266 5.4334339e-39
-0.55653238 -0.6934343 4.0247073 7.8207897e-39
-0.8309375 -0.67950916 4.0824409 1.0872271e-38
0.067236751 -0.80330759 4.4249578 9.1176774e-39
-0.42198655 -0.73734254 4.2226725 5.7975389e-39
0.011203342 -0.79605472 4.4117675 1.0131469e-38
0.14664605 -0.8011387 4.4566569 4.1416105e-39
0.92788982 -1.0123552 5.2824116 6.7259874e-39
-1.6420481 -0.53293955 3.5373111 1.0873715e-38
-1.6197579 -0.5308001 3.5454431 1.0412016e-38
-1.4566014 -0.544011 3.664134 5.3426886e-39
-1.5434439 -0.53737712 3.5984218 1.0872998e-38
-1.4691077 -0.5662604 3.6541872 1.197898e-38
-1.3351398 -0.57388705 3.7481484 1.1241781e-38
-1.2896856 -0.57407761 3.7812586 9.6755315e-39
-1.2842481 -0.59827411 3.7731595 9.3931685e-39
-1.2372259 -0.59199744 3.8126147 9.5779184e-39
-1.0593296 -0.61129469 3.9327011 1.215976e-38
-1.0725722 -0.62579107 3.9207087 1.0223289e-38
-0.96406913 -0.63410646 3.989367 1.0500599e-38
0.72558719 -0.90000772 5.1452518 1.2440683e-38
0.81759858 -0.90737623 5.2040353 1.2715105e-38
0.86084223 -0.93214226 5.2292371 8.6599292e-39
-1.6421576 -0.51248747 3.5358303 1.1149224e-38
-1.6369559 -0.50211692 3.53215 9.7662838e-39
-1.4932411 -0.52258831 3.631443 9.491136e-39
-1.4873729 -0.53326875 3.6321223 1.1887509e-38
-1.5374429 -0.52854788 3.6030478 9.2138261e-39
-1.479079 -0.52175224 3.6363223 1.1978623e-38
-1.4459538 -0.52900785 3.668859 1.087048e-38
-1.1644986 -0.58389801 3.862184 5.8933288e-39
-1.1155515 -0.58244616 3.894809 9.0269027e-39
-0.92034572 -0.60094684 4.0258393 1.280693e-38
-0.47237983 -0.65346056 4.1741452 5.4291053e-39
0.017247062 -0.71255153 4.4097261 1.0585591e-38
-0.0043491996 -0.72536039 4.3963103 4.8759287e-39
0.63166916 -0.86069089 5.0708909 1.2254846e-38
-1.5271411 -0.48321983 3.6070037 1.0779721e-38
-0.95114028 -0.57019162 4.0085244 5.5259981e-39
-1.0146701 -0.56502938 3.9683948 5.6181909e-39
-0.89425802 -0.58300042 4.0427895 1.3082077e-38
1.1550806 -0.90487587 5.4285126 8.1082044e-39
-1.5094049 -0.4625107 3.6192877 8.4755422e-39
-1.1098059 -0.52713287 3.892056 9.0261838e-39
-0.46930248 -0.58171922 4.1763558 4.7859023e-39
0.3809174 -0.68462849 4.6974568 1.0216444e-38
0.060087163 -0.65972358 4.4440494 5.428741e-39
0.37941521 -0.71762234 4.7082086 1.0862182e-38
0.80499399 -0.78760785 5.2115936 9.4914948e-39
-1.6069784 -0.44340086 3.5580413 1.1150311e-38
-1.5820169 -0.4376967 3.5752285 6.9110877e-39
-1.5829375 -0.42620876 3.5779791 9.9535687e-39
-1.4803085 -0.43627188 3.6479237 7.4599441e-39
-1.4038876 -0.45033216 3.6946056 1.0410926e-38
-1.3254046 -0.45577106 3.7439086 9.3971355e-39
-1.2105057 -0.49197233 3.8245051 1.1054496e-38
-1.0718012 -0.49762693 3.9214859 9.7633873e-39
0.36611089 -0.66274005 4.698669 1.0585952e-38
-0.45642039 -0.5613724 4.1934614 7.3670352e-39
0.95779967 -0.74893475 5.2826486 1.2622546e-38
1.1413875 -0.78204918 5.4349356 1.216193e-38
-1.5939776 -0.40467954 3.5707529 1.0504217e-38
-1.6196594 -0.3995679 3.5439386 1.068716e-38
-1.3812226 -0.44685531 3.7082343 9.7644733e-39
-1.3931502 -0.44182527 3.7009475 4.8816965e-39
-1.3461931 -0.42590213 3.7409503 1.0043957e-38
-1.3443249 -0.44676107 3.7356017 9.9488674e-39
-1.4131614 -0.42394683 3.6888163 9.8566787e-39
-1.3044757 -0.43103272 3.7775221 9.3053154e-39
-1.1549259 -0.47221324 3.8595815 1.0594598e-38
-0.013785311 -0.54938549 4.3732977 5.4290997e-39
-1.4530472 -0.40410724 3.6562154 1.0040704e-38
-1.0798304 -0.44967613 3.9109173 1.2895892e-38
-1.1270404 -0.42314678 3.8848209 1.0410937e-38
-1.0076998 -0.45043293 3.9619343 1.1791709e-38
0.098704405 -0.54889971 4.404685 9.2998938e-39
0.14150205 -0.54816025 4.404551 1.0957261e-38
0.95350927 -0.65225673 5.2766638 1.1794585e-38
3.5193944 -1.2768668 9.2635412 1.5306326e-38
3.8595355 -1.3110905 9.3801708 1.1712504e-38
-1.5226536 -0.37163398 3.6239409 6.3568419e-39
-1.3420769 -0.38873813 3.7350895 9.7655607e-39
-1.4429115 -0.36127356 3.6658304 1.1150663e-38
-1.1004841 -0.40521362 3.8975754 1.0869385e-38
-1.3095707 -0.39108697 3.7568741 1.0685718e-38
-1.051831 -0.42554656 3.9310005 1.1152097e-38
-1.2232471 -0.39161375 3.8118117 7.2769906e-39
-0.80287886 -0.40507799 3.763778 1.1966722e-38
-0.59389144 -0.46139184 4.0876074 1.0215361e-38
-0.28926519 -0.44932356 4.1811299 1.0222577e-38
0.93559796 -0.61420572 5.2691889 1.2438515e-38
1.0161825 -0.65021092 5.3312478 1.1792428e-38
0.93407059 -0.64588511 5.2840848 6.0806166e-39
3.5264745 -1.1320777 9.2007837 1.678507e-38
4.2894278 -1.2171621 9.5592861 1.7245326e-38
-1.4803588 -0.33001357 3.6373353 1.115066e-38
-1.4975834 -0.33545277 3.6329968 1.1518721e-38
-1.4145942 -0.35978726 3.6834738 1.105883e-38
-1.2175142 -0.37750989 3.8142385 1.0042879e-38
-1.2740519 -0.34812486 3.7796574 1.0041425e-38
-1.1534567 -0.378867 3.8590949 1.0408406e-38
-1.2898316 -0.35913098 3.7795057 1.0872631e-38
-1.3428117 -0.35080454 3.7304542 9.8563102e-39
-1.2566158 -0.35761985 3.7914836 8.4773428e-39
-1.132592 -0.36876297 3.8738079 1.0594241e-38
-1.0845965 -0.3758201 3.9133222 9.9499548e-39
-0.59796667 -0.40849876 4.1016312 8.748885e-39
-0.23115529 -0.45198783 4.222106 9.9470737e-39
0.41710335 -0.522843 4.7729855 7.1833502e-39
0.53179342 -0.49980947 4.7823901 5.3390761e-39
0.43535379 -0.51310766 4.7832227 8.6527153e-39
-1.5067716 -0.30898872 3.6209214 9.7651908e-39
-1.5073783 -0.31944552 3.6181064 1.142616e-38
-1.5667497 -0.32015434 3.5845969 9.8606444e-39
-1.5495387 -0.30273521 3.5892568 7.646136e-39
-1.1255064 -0.35019022 3.8855927 5.9880538e-39
-0.79413384 -0.34514034 3.753974 4.2312824e-39
-1.1495521 -0.33811778 3.8663287 1.2070091e-38
-1.1093801 -0.35912079 3.889924 4.7887778e-39
-1.1129558 -0.34493423 3.8920467 1.0690038e-38
-0.78133243 -0.35397527 3.7559683 1.2519898e-38
-0.21003041 -0.40349728 4.2540727 4.6926277e-39
0.14184211 -0.44385582 4.4738369 1.0038553e-38
0.45240563 -0.48613599 4.7931662 9.3888398e-39
0.5425995 -0.46079239 4.7886672 5.4309116e-39
0.51759177 -0.46858132 4.789784 9.4795949e-39
0.49880219 -0.4905774 4.7845907 9.0200587e-39
0.85399878 -0.53012937 5.2256527 6.633426e-39
1.0105441 -0.5409776 5.3175445 1.096122e-38
0.88938004 -0.53338879 5.2464623 1.271366e-38
3.3355103 -0.94483507 9.171072 1.4662419e-38
4.5773578 -1.0279688 9.5972319 1.2448265e-38
-1.6493706 -0.26462194 3.5291474 5.803657e-39
-1.4245446 -0.29993904 3.6737268 8.5673721e-39
-1.4258977 -0.2855649 3.6746092 9.9503135e-39
-1.1574104 -0.30180937 3.8509233 9.2120114e-39
-1.2074875 -0.30256417 3.8237753 1.1516199e-38
-0.54958999 -0.34280229 4.1232853 6.9917465e-39
-0.62745386 -0.35359329 4.0722065 1.0677421e-38
0.51389903 -0.42738879 4.7979879 9.3874021e-39
0.49982429 -0.4131569 4.7999582 7.4527302e-39
0.49653947 -0.43880901 4.7981138 6.3478232e-39
0.9638198 -0.49682975 5.2928338 1.2626509e-38
3.1629941 -0.85472643 9.1027174 1.7061295e-38
3.3108878 -0.8602528 9.1555624 1.1067129e-38
3.555095 -0.84983474 9.239934 1.0606153e-38
3.6776581 -0.8644467 9.3183851 9.4068886e-39
4.6164908 -0.91384584 9.5990658 8.9444685e-39
4.3003187 -0.90406919 9.5117149 1.4573458e-38
4.0398569 -0.93473089 9.4597321 1.4108881e-38
4.2165308 -0.94032866 9.4688244 1.5679085e-38
4.6434498 -0.97955948 9.6452227 1.0140844e-38
-1.4138842 -0.26942492 3.6836264 4.9735362e-39
-1.4504024 -0.26446444 3.6655958 5.1582861e-39
-1.5151371 -0.24831335 3.6157532 1.0504568e-38
-1.1555575 -0.28762692 3.8535743 1.0041062e-38
-1.0929273 -0.28364757 3.9017549 8.4744506e-39
-0.58477879 -0.31244904 4.1104531 8.6556118e-39
-0.093028121 -0.34807083 4.3110785 8.7491919e-39
0.33544791 -0.36992884 4.7132211 1.2245478e-38
0.46781093 -0.37572369 4.790606 1.0860377e-38
0.51329744 -0.39804161 4.7895789 1.0860015e-38
3.8328972 -0.84145027 9.3276062 1.0605797e-38
4.3323946 -0.81513691 9.5315399 1.6233338e-38
4.7295179 -0.88341969 9.4555941 8.1085141e-39
-1.5533695 -0.2222247 3.5887017 9.2138219e-39
-1.527115 -0.24330795 3.6084623 8.3840654e-39
-1.4177634 -0.24261811 3.6838782 9.030888e-39
-1.2069556 -0.26283345 3.8277209 9.5844233e-39
-1.3790591 -0.24436639 3.6998026 8.8443303e-39
-0.54628271 -0.29657993 4.1265368 1.0770335e-38
-0.21287556 -0.28812531 4.2474446 4.3241983e-39
0.11347359 -0.33267048 4.4675879 1.1969976e-38
0.72828627 -0.34192589 4.8157415 1.1506109e-38
0.51650399 -0.33695927 4.7953839 1.0583786e-38
0.51357228 -0.36441633 4.7977052 1.0215365e-38
3.5285106 -0.74271959 9.3181829 1.0974937e-38
1.1126328 -0.39922976 5.4028821 1.1515481e-38
4.1916304 -0.75710833 9.48915 1.4111031e-38
4.7372522 -0.75966609 9.5420532 1.2436702e-38
4.6868105 -0.75210106 9.6762896 1.0328479e-38
4.510087 -0.77085155 9.5720043 1.3926644e-38
-1.5912269 -0.20766312 3.5610003 1.0781519e-38
-1.3567754 -0.20479895 3.7249999 8.4759023e-39
-1.3962954 -0.21553612 3.6935458 8.8436044e-39
-0.80273217 -0.22450799 3.8447905 1.0309001e-38
-0.088458695 -0.27278259 4.3355317 8.841382e-39
0.12419511 -0.27844116 4.4782453 5.520945e-39
0.15365106 -0.27544114 4.4976177 5.5209436e-39
0.33542365 -0.30495313 4.7185998 1.2244397e-38
1.1495308 -0.33545464 5.410367 9.2123925e-39
1.1279757 -0.35622731 5.4106698 1.2346678e-38
3.6991065 -0.66371477 9.2859564 1.3189072e-38
4.7414565 -0.64346886 9.637743 6.2678945e-39
4.5313311 -0.67434204 9.5870028 1.4101279e-38
4.3707805 -0.70511484 9.6615477 1.493104e-38
4.6607909 -0.67602754 9.6071062 1.0051172e-38
4.4874945 -0.65784627 9.6205244 6.8142132e-39
-1.5118493 -0.16971439 3.6157377 8.8446792e-39
-1.5006446 -0.17527695 3.6217089 9.858478e-39
-1.4292276 -0.19510242 3.6688774 8.199314e-39
-1.4459203 -0.1924926 3.6610231 1.0963385e-38
-1.3110943 -0.18189853 3.7484353 1.06886e-38
-0.59533763 -0.20545505 4.0849586 3.773907e-39
-0.58035624 -0.21673696 4.0843434 9.0168189e-39
0.53145295 -0.28518862 4.8059087 1.0215721e-38
3.340941 -0.51884919 9.1383867 1.4847875e-38
1.1871175 -0.30732456 5.4343829 1.2716903e-38
0.48267734 -0.268828 4.8068876 1.0493751e-38
2.7701242 -0.46288019 7.38238 1.2542981e-38
4.0216274 -0.57769912 9.4327745 1.0144815e-38
-1.5901827 -0.16452697 3.5591106 1.0872637e-38
-1.6103296 -0.16435502 3.548173 1.0688604e-38
-1.5700188 -0.14944707 3.5736299 9.2141904e-39
-1.5469161 -0.16852002 3.5905709 7.6475892e-39
-1.3809216 -0.16531292 3.6991382 9.2116611e-39
-1.1092417 -0.15898918 3.8833542 9.8570305e-39
-0.56191522 -0.1732188 4.0703177 9.5699857e-39
-0.20910919 -0.20871438 4.2532673 6.2559961e-39
-0.2382609 -0.19087552 4.2290702 1.2058919e-38
0.18870237 -0.21143229 4.5225244 5.5198618e-39
0.49745628 -0.21951032 4.8261757 7.364859e-39
0.51328164 -0.20673564 4.8275132 8.8353059e-39
1.0525811 -0.2499333 5.3371348 1.2255562e-38
-1.6147156 -0.13862577 3.5418646 8.9386937e-39
-1.6318294 -0.13876379 3.5317893 9.0308894e-39
-1.4506404 -0.13926865 3.6499729 1.0043947e-38
-1.184863 -0.12897502 3.8354428 3.1332221e-39
-1.127656 -0.138391 3.8687146 1.0132536e-38
-0.70864862 -0.15411608 4.008574 4.9706509e-39
-0.67038345 -0.14127097 4.0536737 8.1960714e-39
-0.55034024 -0.16450998 4.0749068 6.8087985e-39
-0.32508406 -0.15863115 4.17063 1.2150391e-38
-0.17349009 -0.16085459 4.2846899 2.8523024e-39
-0.20914164 -0.16720307 4.2513137 4.8748567e-39
-0.038115308 -0.15301988 4.2698483 8.7546206e-39
4.3705549 -0.34548256 9.5687647 1.3557493e-38
-1.4671181 -0.098510742 3.6510952 5.8958596e-39
-1.4470927 -0.10910838 3.6577885 7.8312476e-39
-1.3069065 -0.11298426 3.7470965 9.304214e-39
-1.2314926 -0.11894394 3.7978318 4.8816937e-39
-1.2728876 -0.11621831 3.777545 1.0688949e-38
-1.0577539 -0.11324918 3.9213355 7.1862327e-39
-0.31151503 -0.13730618 4.1817851 6.8134943e-39
-0.28526783 -0.13104957 4.1973281 1.2244028e-38
-0.0037816213 -0.14556666 4.2642498 6.8195927e-39
-0.091939889 -0.14468248 4.2967281 8.0112724e-39
3.3170948 -0.24759187 9.1624956 1.632373e-38
-1.5416859 -0.066718467 3.5900984 9.3967656e-39
-1.6190397 -0.085635476 3.5421145 1.041165e-38
-1.5033253 -0.073234893 3.6170278 9.8577479e-39
-1.4524982 -0.089648649 3.6591253 1.0412382e-38
-1.3633411 -0.083103724 3.7195737 9.0305278e-39
-1.3171812 -0.068669334 3.7414711 8.6610152e-39
-1.2360502 -0.076175369 3.798049 1.0595321e-38
-1.2240977 -0.086614087 3.804889 6.539071e-39
-1.1902463 -0.075154088 3.8290184 8.2889873e-39
-0.049395297 -0.096988685 4.2529793 6.6348469e-39
-0.034959588 -0.08712507 4.2464075 1.2258036e-38
1.2386258 -0.10970825 5.4674048 1.0133626e-38
1.026491 -0.1036915 5.3322792 5.4323591e-39
0.99899691 -0.1284793 5.3232365 1.197718e-38
0.95233667 -0.13348293 5.2792101 1.1700226e-38
3.3840687 -0.21301338 9.2363491 1.3925916e-38
4.5981169 -0.16915655 9.6085234 1.3647889e-38
-1.6203159 -0.059461258 3.5376644 9.1234353e-39
-1.4509388 -0.04716133 3.6534123 1.133324e-38
-1.6051077 -0.064399816 3.5494223 9.3053028e-39
-1.374801 -0.045777503 3.7016239 1.1055934e-38
-1.3728747 -0.059624933 3.7083409 9.3964069e-39
-1.0605209 -0.066886894 3.9211528 4.6043935e-39
-0.16570523 -0.059907846 4.2695322 9.4904074e-39
-0.045159705 -0.059366193 4.2620482 2.394927e-39
0.64808118 -0.053364914 4.9000096 6.4411006e-39
0.4161827 -0.080042057 4.7739034 7.9169636e-39
0.61797875 -0.071738116 4.8920279 1.0400839e-38
3.419688 -0.071010835 9.193161 1.2267122e-38
3.7135439 -0.068815321 9.2996292 1.2267481e-38
-1.6460807 -0.030559879 3.5113995 8.477347e-39
-1.596931 -0.015879279 3.5505767 7.3706365e-39
-1.6199443 -0.021961728 3.5405359 8.2929558e-39
-1.5989454 -0.038246341 3.5554595 6.6330645e-39
-1.5357375 -0.02266065 3.5946932 9.1209214e-39
-1.1246626 -0.02442533 3.8666236 7.0025659e-39
-0.011691803 -0.028211622 4.2896438 3.8671746e-39
-0.086576492 -0.027429899 4.2767015 2.761913e-39
-0.12363137 -0.035457246 4.2702312 3.1299683e-39
1.1896755 -0.020406138 5.4135418 1.3085684e-38
0.98608017 -0.014360302 5.2989669 7.646499e-39
-1.5821273 0.0021272593 3.5627525 9.2131086e-39
-1.4521695 -5.1078769e-05 3.6528702 5.2504846e-39
-1.2915335 -0.001540745 3.7628028 5.6181951e-39
-1.2795571 0.0097349146 3.7710214 1.0318734e-38
-1.2118363 -0.011635993 3.8196297 8.382985e-39
-0.80700505 -0.0030335686 3.831893 1.2244039e-38
-1.0933355 -0.005377382 3.8967814 7.1844264e-39
-0.16196595 0.012596736 4.2509446 1.0400832e-38
0.53907818 0.0067046825 4.8597898 9.7612419e-39
0.7156778 0.036386713 4.8871455 6.9024375e-39
3.1914368 0.059119098 9.194231 1.6785782e-38
1.0056354 0.014507622 5.298408 1.2621097e-38
1.1573722 0.0063952045 5.4402137 1.3820005e-38
4.5980992 0.11940584 9.602313 1.401559e-38
-1.6064507 0.023902295 3.5490141 1.0047565e-38
-1.439492 0.037452132 3.6554058 9.1219794e-39
-1.3789439 0.015564088 3.7045987 9.0312467e-39
-0.20284745 0.054315604 4.2474141 1.0584506e-38
-0.22178121 0.041200627 4.240262 1.1689772e-38
0.64772505 0.062546864 4.8439674 7.3576493e-39
4.085186 0.20606281 9.4608984 1.3465661e-38
3.8316202 0.16738892 9.4057903 9.4972891e-39
4.2515965 0.16740695 9.5662794 5.0744142e-39
4.4998794 0.20963801 9.5894146 1.3637056e-38
-1.6007962 0.039191477 3.5498054 6.9114633e-39
-1.5275402 0.039752927 3.5965343 1.0504202e-38
-1.5522265 0.057500321 3.5777013 1.4941912e-38
-1.4688649 0.056623168 3.6349659 9.306742e-39
-1.5490477 0.036686897 3.5814705 1.0414541e-38
-1.5643522 0.051648658 3.5672247 2.21597e-39
-1.6409709 0.050301809 3.5195134 1.0134339e-38
-1.5048289 0.045543972 3.6115365 2.3074425e-39
-0.18979923 0.0846714 4.2261686 1.344186e-38
3.9879782 0.28258252 9.4314699 1.3742606e-38
4.5722513 0.23156525 9.6134939 1.4560819e-38
4.6675501 0.26692274 9.6419392 1.1064964e-38
1.3731546 0.12777367 4.7263503 1.2164092e-38
-1.3367671 0.080896437 3.725498 8.1067498e-39
-1.3529297 0.091093048 3.7125163 4.8842216e-39
-1.5904911 0.077664472 3.5532615 1.0875162e-38
-1.2392547 0.081408456 3.789757 6.9092927e-39
-1.1719307 0.08844129 3.8454309 7.0040162e-39
-0.39731961 0.11224986 4.172873 1.1044771e-38
-0.37888056 0.09960603 4.1816568 5.2432693e-39
3.5813775 0.32679689 9.2929363 1.0422843e-38
4.7050109 0.34919497 9.5907974 1.1152046e-38
-1.5902518 0.1050871 3.5573003 9.4011152e-39
-1.5782726 0.095259473 3.559047 8.2040434e-39
-1.6005347 0.1099937 3.5531521 5.5317574e-39
-1.4604456 0.099782422 3.6443279 7.8323406e-39
-1.4224283 0.09291666 3.6702504 7.461749e-39
-1.2575713 0.1109684 3.7857611 2.9484665e-39
-1.207479 0.1298736 3.8237858 3.0410279e-39
-1.1842296 0.12562434 3.8288291 5.4334367e-39
-1.1516886 0.10608269 3.8530135 7.1851551e-39
-1.1099111 0.12674809 3.8854296 8.8475687e-39
-1.0589337 0.11980093 3.9155393 4.8806189e-39
0.34009027 0.15418169 4.5300369 1.0585944e-38
4.6906714 0.45094892 9.5784187 1.1329272e-38
-1.5898967 0.12948222 3.5494049 7.7441078e-39
-1.5092127 0.11994088 3.4978218 2.031213e-39
-1.3913318 0.12919517 3.6950839 8.3862346e-39
-1.3118763 0.14845774 3.7366867 8.8446876e-39
-1.2243935 0.15136161 3.797401 7.370275e-39
-1.2506392 0.14635628 3.7805691 6.9096542e-39
-1.1223067 0.15213718 3.866677 9.671549e-39
-1.0931562 0.14654829 3.8862238 6.9993163e-39
-1.0441306 0.13631009 3.9117153 7.4610245e-39
-0.68001604 0.14669482 3.8257415 8.0120347e-39
-0.70014131 0.16455716 3.8256793 7.1840551e-39
0.06942974 0.20687696 4.2643871 7.7318464e-39
1.3815944 0.3773174 7.4346642 1.3076325e-38
0.060732663 0.18935663 4.2698312 1.2544078e-38
0.34195703 0.19477516 4.4840746 1.3168879e-38
0.66605121 0.23213263 4.6925812 1.2797931e-38
3.879163 0.55204743 9.3660088 1.0511787e-38
4.118968 0.55261141 9.5114727 9.7753039e-39
4.4039297 0.51755059 9.5506334 1.2358948e-38
4.5048742 0.54276997 9.5499029 2.6718908e-39
-1.5771022 0.16001113 3.5602474 9.5833583e-39
-1.201676 0.16773586 3.8141963 9.2149065e-39
-1.1116879 0.17894901 3.8745563 6.1695486e-39
-1.2298957 0.17689009 3.7967517 8.4766184e-39
-1.244121 0.18109986 3.7866533 6.0784432e-39
-0.85646528 0.17920683 3.6423819 6.6272869e-39
-0.55217642 0.18559565 3.8395772 1.2706459e-38
0.11304487 0.21905991 4.3134351 6.4439845e-39
-0.14446408 0.19766217 4.1366544 1.289049e-38
0.22252738 0.29532471 5.4093876 6.8134901e-39
1.3384272 0.40727305 7.4620848 9.7626768e-39
3.2840164 0.60647583 9.139245 1.704865e-38
4.3561478 0.651344 9.473938 2.303823e-39
4.446887 0.60049289 9.519784 3.4087356e-39
4.3080301 0.66242027 9.4943514 1.124177e-38
4.1312146 0.64655572 9.4319897 1.2622539e-38
4.2440391 0.59087312 9.5097055 1.6310723e-38
4.6504741 0.63310933 9.3836184 3.87475e-39
-1.4232078 0.19415949 3.6618776 6.449762e-39
-1.4866031 0.17846635 3.6192946 1.5691474e-39
-1.5059704 0.18956541 3.6004806 1.4389816e-38
-1.4452851 0.19590519 3.6459088 9.1219906e-39
-1.2145771 0.20170422 3.8198168 7.2795101e-39
-1.2014804 0.20416279 3.8217673 4.9753382e-39
-1.0531683 0.20242739 3.9099178 2.9466658e-39
-0.8096332 0.1986796 3.660152 3.0417355e-39
-1.1549894 0.19539814 3.8433161 8.1096477e-39
-0.7237311 0.19841056 3.722755 1.1326754e-38
-0.69353384 0.21033205 3.7437985 7.7361498e-39
-0.58947879 0.21944633 3.8191426 7.5521257e-39
-0.55414385 0.21093136 3.8461924 9.11622e-39
4.161335 0.76101261 9.4892282 1.1517276e-38
4.352592 0.71365041 9.4200573 2.8577128e-39
4.2679625 0.70642906 9.4445 3.5927625e-39
4.2232523 0.71641165 9.4673815 1.1424362e-38
-1.646911 0.18461829 3.5108771 1.041418e-38
-1.5360036 0.19912621 3.567127 5.6203685e-39
-1.5585455 0.19601217 3.5599771 8.3193268e-40
-1.4665854 0.21106856 3.6369913 1.0410204e-38
-1.3163327 0.21585059 3.734139 8.1978651e-39
-1.1710303 0.23918821 3.8274693 7.8312419e-39
-0.78255469 0.22890601 3.6813664 1.0956167e-38
-0.71994525 0.22887594 3.7314725 6.1720681e-39
0.14618401 0.3203693 4.3367186 1.3168163e-38
0.3453058 0.30013269 4.4749441 1.3628058e-38
0.74285573 0.32168564 4.5861492 1.5011358e-38
4.2732916 0.75922424 9.25138 1.6595241e-39
-1.2171474 0.26734641 3.8112581 8.0174437e-39
-1.1864365 0.25306848 3.829565 2.6715181e-39
-1.6430674 0.20805751 3.512732 1.0138677e-38
-1.1435684 0.2600995 3.8565743 3.868262e-39
-1.2013994 0.24360645 3.8177769 8.2904208e-39
-0.79377508 0.24266033 3.6702967 7.0911476e-39
-0.28790352 0.30810156 4.0263872 9.0222307e-39
-0.049445134 0.30345303 4.1867709 9.2084241e-39
0.10345697 0.34619227 4.241868 1.2800452e-38
-0.022376295 0.32826981 4.2131333 1.2889411e-38
-1.5892639 0.24980547 3.5454943 7.649757e-39
-1.4949712 0.25738639 3.6104238 7.832342e-39
-1.4130296 0.27738044 3.6766214 9.6769678e-39
-1.4492083 0.26286921 3.6451459 4.3314037e-39
-1.4161965 0.25520825 3.6672668 8.6595635e-39
-1.3701385 0.27165443 3.7024317 8.8457652e-39
-1.2481946 0.2840209 3.7768915 7.5550264e-39
-1.3145734 0.28512669 3.7403948 5.1579358e-39
-0.78087032 0.29733673 3.6846871 1.0955081e-38
-0.10302315 0.34542933 4.094461 1.4094076e-38
-1.6418239 0.26721892 3.5138018 1.0412018e-38
-1.6317803 0.2724759 3.531719 6.7303188e-39
-1.5436696 0.27578986 3.5853524 6.542301e-39
-1.5232043 0.27403167 3.5929658 6.5437457e-39
-1.4149389 0.30082768 3.6623428 8.4766198e-39
-1.2648871 0.31273016 3.7672989 3.9608234e-39
-1.2790736 0.31884229 3.7519372 6.7256287e-39
-0.7251758 0.32915065 3.719389 8.3797284e-39
-0.65268576 0.32114759 3.7696798 1.2152919e-38
-0.71166092 0.32505429 3.7275162 1.2429143e-38
-0.083132707 0.38536614 4.1092944 7.9201964e-39
0.09706071 0.40101004 4.2272143 6.1040799e-39
-1.5848985 0.30633315 3.5493045 1.1150662e-38
-1.2606032 0.3255721 3.7709882 7.2784409e-39
-0.84321523 0.32539523 3.6395974 1.2060005e-38
-1.6045901 0.31121135 3.5382302 5.4377639e-39
-1.6319056 0.32670808 3.5151553 8.4740904e-39
-1.5289196 0.33353862 3.5858083 8.3866032e-39
-1.4471757 0.34150007 3.6412311 8.7546514e-39
-1.3373448 0.3581869 3.7250555 5.1586505e-39
-1.3797145 0.3395521 3.6846211 9.3989432e-39
-1.1791207 0.37706846 3.8317704 4.145579e-39
-1.2660606 0.363922 3.7728229 7.0969293e-39
-1.1664051 0.37003461 3.8402519 7.5571942e-39
-1.6357874 0.34117392 3.5158234 1.0595314e-38
-1.5327235 0.35846817 3.581954 1.1520166e-38
-1.4719814 0.36145359 3.6258461 6.4511956e-39
-1.508556 0.36718476 3.6024773 7.7394121e-39
-1.4074429 0.38170204 3.6771624 6.5426835e-39
-1.4202939 0.37675932 3.6624854 1.013687e-38
-1.4205121 0.36204937 3.6630826 5.527433e-39
-1.3545743 0.37280893 3.7089465 9.1230794e-39
-0.62957525 0.42042175 3.7451241 5.8004003e-39
-1.5989106 0.37141332 3.5378816 9.3099972e-39
-1.5959091 0.38572416 3.5500968 7.7419498e-39
-1.5112903 0.39036575 3.5865786 7.6490339e-39
-1.5237828 0.3871305 3.5843875 1.0508543e-38
-0.088994108 0.41104683 3.3885305 7.4556015e-39
-0.067275822 0.41096228 3.3860431 7.4552483e-39
-1.4859319 0.38357598 3.6127954 8.1078485e-39
-1.1440911 0.43360928 3.8536003 5.2526496e-39
-0.62746865 0.44210267 3.7705128 2.761906e-39
-0.17617978 0.41173288 3.4000473 7.5474426e-39
0.20108086 0.40638742 3.3514032 9.7579853e-39
-1.6152059 0.38961011 3.5275972 1.0691128e-38
-1.5695769 0.40630069 3.5553498 7.0951343e-39
-0.6626814 0.46657777 3.7440426 7.0879022e-39
-1.1433408 0.47343534 3.8483043 5.2504734e-39
-1.6287174 0.41010463 3.5158875 6.5430381e-39
-1.3266482 0.4613134 3.7285452 8.5662832e-39
-1.2199395 0.46694931 3.7951925 3.7753475e-39
-1.2390776 0.47552744 3.7888832 5.250486e-39
-0.013874974 0.47748035 3.4036493 5.154682e-39
-0.3246372 0.47995985 3.6008666 2.211256e-39
-1.4960073 0.46032089 3.6017423 7.3720883e-39
-1.6440269 0.44875085 3.5132883 1.0968797e-38
-1.4271454 0.48721382 3.6613429 9.67913e-39
-1.5431114 0.46447012 3.5736959 1.0875161e-38
-1.5371786 0.45266461 3.5783026 7.3720897e-39
-1.3378103 0.4810673 3.7234747 9.5847694e-39
-1.3339298 0.49642891 3.7347174 3.5931198e-39
-0.59648925 0.53597945 3.7981851 2.1204981e-39
-0.026823768 0.49801874 3.4061887 5.8918911e-39
-0.56019342 0.53329825 3.8179545 5.8908023e-39
-1.3777755 0.51112169 3.6899936 9.031597e-39
-1.4057152 0.51205176 3.6684754 9.2156309e-39
-1.5195487 0.48580569 3.5887918 3.4094502e-39
-1.4547069 0.4943262 3.6321974 1.0043227e-38
-1.4655992 0.48183215 3.6227233 5.2512034e-39
-0.40289351 0.56507671 3.7011797 6.2588618e-39
-0.61258417 0.56880838 3.7826393 7.5474468e-39
-0.096697062 0.5320406 3.4201999 5.1557596e-39
-1.6182388 0.50294197 3.5265105 1.0689675e-38
-1.6372615 0.47909832 3.5036373 7.9259697e-39
-1.5698386 0.5103209 3.557956 8.9372406e-39
-1.5024352 0.51328421 3.6000667 9.7659194e-39
-1.4522918 0.51520872 3.6383498 1.0320535e-38
-1.2782106 0.55201823 3.7541542 9.4885997e-39
-1.4386077 0.51806426 3.6440804 8.1989441e-39
-1.2332298 0.56376606 3.7828348 8.4751638e-39
-0.57489312 0.60478598 3.80512 6.4418167e-39
-1.2523248 0.55872339 3.7692883 8.751392e-39
-0.30327725 0.56762004 3.5722208 7.0868232e-39
-0.46342114 0.60663903 3.7818365 5.7975207e-39
0.031671952 0.54779273 3.397049 5.5198604e-39
