# .PCD v0.7 - Point Cloud Data file format
VERSION 0.7
FIELDS x y z rgb
SIZE 4 4 4 4
TYPE F F F F
COUNT 1 1 1 1
WIDTH 1024
HEIGHT 1
VIEWPOINT 0 0 0 1 0 0 0
POINTS 1024
DATA ascii
0.7486549 -0.68526262 2.4217165 1.1144531e-38
0.72402054 -0.68204838 2.4147961 1.2900212e-38
0.38061959 -0.69351786 2.330132 9.208787e-39
0.74789655 -0.67074209 2.4203947 1.0316218e-38
0.81184196 -0.67014933 2.435955 1.1144894e-38
0.83624721 -0.66809857 2.4417636 1.2899849e-38
0.4516924 -0.67599094 2.3482037 1.2716185e-38
0.78765005 -0.65955532 2.4295025 1.0314772e-38
0.11069797 -0.66729379 2.1819103 7.6403655e-39
0.68367493 -0.65541267 2.4070868 1.1978979e-38
0.6301949 -0.65951049 2.3913391 8.5659385e-39
0.64186418 -0.65641409 2.3938437 9.8559557e-39
0.69951183 -0.65040034 2.4056289 1.2530708e-38
0.50824583 -0.66886061 2.3620527 1.0959422e-38
0.372585 -0.66471469 2.3299713 1.1610203e-38
-0.4516398 -0.69450992 2.1337523 1.2251956e-38
0.34280464 -0.65144253 2.3220985 1.2622188e-38
0.39527032 -0.64454198 2.3343592 9.8509152e-39
0.37952071 -0.65153378 2.3302107 1.2529625e-38
0.83065015 -0.62312424 2.4384942 1.0871552e-38
0.80715942 -0.6305334 2.4336014 1.0042156e-38
0.84759969 -0.62785089 2.443521 1.0227266e-38
0.94574857 -0.62025291 2.4674504 9.9477968e-39
0.33443779 -0.64628631 2.3203382 1.2349205e-38
0.44211343 -0.64007747 2.345319 1.2256645e-38
0.71447861 -0.6168977 2.4116004 1.2898046e-38
-0.43775237 -0.66490942 2.1366923 1.2806573e-38
-0.41593376 -0.66415071 2.1418872 9.4857284e-39
-0.45395258 -0.67039281 2.1330647 1.0684989e-38
0.40895152 -0.61707735 2.3349605 1.2621097e-38
0.3894586 -0.62100589 2.3295686 1.2988082e-38
0.42862844 -0.61422056 2.34217 7.9191188e-39
-0.65970999 -0.67094421 2.0883622 1.1790976e-38
-0.42462254 -0.65068054 2.1429179 1.1237443e-38
0.23579806 -0.58408272 2.1757286 1.0493398e-38
0.52795845 -0.59798157 2.362318 1.2441399e-38
0.73401463 -0.58585471 2.4143941 1.1887145e-38
0.89874899 -0.58048785 2.4525366 1.2808381e-38
0.94352227 -0.57810956 2.4674103 1.3821452e-38
-0.6117956 -0.65729618 2.0986407 1.1703108e-38
-0.47528636 -0.64172798 2.1328468 8.4748163e-39
0.64208394 -0.58028394 2.3945737 1.2346678e-38
0.78416324 -0.57206225 2.4290633 9.487885e-39
0.94443262 -0.57102424 2.4683242 9.4868284e-39
-0.069573976 -0.57589549 2.0739949 8.3761411e-39
0.012889786 -0.57363904 2.0887332 6.9013669e-39
0.38305452 -0.58493018 2.3264081 1.2992411e-38
0.62727308 -0.57522625 2.3899982 1.1426164e-38
0.69258243 -0.57222778 2.4043593 1.1147052e-38
-0.75395137 -0.64566207 2.0743272 1.0872636e-38
-0.45124182 -0.61973184 2.135066 1.3727449e-38
-0.45839739 -0.62339646 2.1305084 8.660295e-39
0.39013416 -0.57168704 2.3292029 1.2344872e-38
0.45875514 -0.5720439 2.3471856 1.2623261e-38
0.70805615 -0.56080735 2.4116061 1.1058826e-38
0.74638903 -0.55859137 2.4215782 1.0782601e-38
-0.41678968 -0.60616773 2.1402488 1.1238163e-38
0.32931501 -0.57176274 2.3161767 1.0868303e-38
0.89675784 -0.53671825 2.4554665 1.2164095e-38
-0.38466036 -0.59607226 2.1458189 9.4857242e-39
0.40445778 -0.55529988 2.3345027 1.1979708e-38
0.4509511 -0.55286753 2.3408163 1.3268637e-38
0.48707002 -0.54471648 2.3525555 1.1980052e-38
0.57292449 -0.546637 2.3739653 1.2069371e-38
0.63842964 -0.54549676 2.3918743 1.1794223e-38
0.59056568 -0.54467005 2.3794763 1.1239606e-38
0.59544903 -0.53385097 2.37923 1.2622906e-38
0.88073826 -0.5142076 2.4466138 9.9481541e-39
-0.40631065 -0.57379049 2.1416709 1.2435266e-38
0.10731849 -0.50780416 2.0948815 3.8653837e-39
-0.1547945 -0.52954036 2.0444636 1.1136962e-38
0.54242003 -0.52807462 2.3676577 1.1421116e-38
0.65698522 -0.52046198 2.3927014 1.1886062e-38
0.67604256 -0.51672757 2.398622 1.2160855e-38
0.71336102 -0.5211398 2.4081824 1.1146699e-38
0.72043711 -0.52095854 2.4096956 1.3362999e-38
0.77175766 -0.51519036 2.4212132 1.1426162e-38
0.86846781 -0.51017904 2.4447892 1.0500249e-38
-0.48504156 -0.56510943 2.1219699 1.0408038e-38
-0.071142301 -0.50915033 2.0554585 4.2330872e-39
-0.59461039 -0.56568664 2.0988803 1.1424353e-38
0.1593302 -0.49158159 2.1052904 4.6933465e-39
0.53232616 -0.50954652 2.3629894 1.3634535e-38
0.58879423 -0.50193399 2.3784537 1.2714736e-38
0.67182034 -0.49904755 2.3970094 1.2345959e-38
0.7379871 -0.50048727 2.4110343 1.2070087e-38
0.75163913 -0.48996365 2.414798 1.2161561e-38
0.8160454 -0.48892978 2.4315634 1.1425801e-38
-0.08295697 -0.48978958 2.0509279 6.1652368e-39
0.47014892 -0.49620301 2.3501976 1.0404801e-38
0.47724485 -0.49377501 2.3520687 1.2434907e-38
0.5576961 -0.49422839 2.370657 1.0681746e-38
0.46682709 -0.49164042 2.3513761 1.2158323e-38
0.57516384 -0.48348218 2.3816402 5.8007829e-39
0.63426316 -0.48095161 2.3897979 9.1194682e-39
0.60766947 -0.47888893 2.3825781 8.4726639e-39
-0.87336057 -0.54006022 2.0338628 1.0502044e-38
-0.91697603 -0.54609883 2.0238607 9.8573976e-39
-0.51347488 -0.51846266 2.1142833 1.2070083e-38
0.46596348 -0.48230657 2.3496971 1.1142723e-38
0.84622711 -0.45964125 2.4383972 1.004035e-38
-0.53288752 -0.51167953 2.1118007 8.65813e-39
0.33652839 -0.45109725 2.1825469 1.0127129e-38
0.63713241 -0.45575058 2.3893654 9.7623195e-39
0.85147691 -0.44686717 2.4435596 1.2897341e-38
-0.50376087 -0.50030106 2.1163158 1.1515829e-38
-0.94404835 -0.50499159 2.0170596 1.1242129e-38
-0.84537011 -0.50012785 2.03615 1.326755e-38
-0.89248395 -0.51186371 2.029191 1.1702389e-38
0.5325219 -0.43900922 2.3614507 1.0501691e-38
-0.87068009 -0.49582011 2.0294352 1.0041069e-38
-0.46701792 -0.47152221 2.1242137 1.2897323e-38
0.46372402 -0.43548742 2.3445058 1.299169e-38
0.47827131 -0.4323073 2.3469465 1.2990253e-38
0.51521754 -0.42997521 2.3563092 1.2067931e-38
0.76688129 -0.42442018 2.4203963 9.4846466e-39
0.82483083 -0.42108613 2.434732 1.2069365e-38
0.85816777 -0.42085385 2.4430382 8.5666644e-39
0.83886707 -0.42400983 2.4359016 1.289986e-38
0.83858806 -0.41703942 2.4390504 9.1158697e-39
-0.94247437 -0.4852103 2.0145214 9.765202e-39
-0.91071445 -0.48167536 2.0241706 9.9517582e-39
0.48616809 -0.42363364 2.3507757 1.3451588e-38
0.59642392 -0.41544753 2.3770409 1.0499519e-38
0.49004105 -0.41215429 2.3513265 1.299133e-38
0.57887506 -0.41358235 2.3718548 1.2530352e-38
0.0023829271 -0.39959106 2.1176484 1.20582e-38
0.38458407 -0.40776318 2.3244703 9.2073381e-39
0.63348055 -0.40083066 2.3912423 1.207478e-38
0.40723595 -0.39791906 2.3349378 1.2349926e-38
0.46588835 -0.38904616 2.3446913 8.2911593e-39
0.47225189 -0.39762026 2.34693 6.9996918e-39
0.81630945 -0.37822449 2.4304185 1.0869753e-38
-0.72639889 -0.42665103 2.0583572 1.1145974e-38
-0.59865034 -0.42508569 2.0913036 1.1054132e-38
0.36759096 -0.38317308 2.3213041 9.8563228e-39
0.97481161 -0.36444491 2.4693425 1.169735e-38
0.022331122 -0.37381262 2.1224914 5.2436336e-39
0.0079215858 -0.37519088 2.1182261 1.0584508e-38
-0.92696565 -0.42013291 2.0162439 1.1608747e-38
0.39870343 -0.36173815 2.3240929 1.3081722e-38
-0.074788824 -0.36156848 2.0982883 5.613142e-39
-0.96738684 -0.40342119 2.0101535 1.2625066e-38
-0.91814876 -0.40103751 2.0217817 1.0321983e-38
-0.94049531 -0.4082711 2.0151088 6.3571923e-39
-0.90397459 -0.40610546 2.0209188 3.964073e-39
-0.81012899 -0.40188313 2.0423198 4.4232519e-39
-0.23794757 -0.37037694 2.1072738 5.4283934e-39
0.52207196 -0.34830868 2.3545108 1.0778276e-38
0.6733191 -0.33944809 2.3941169 1.0136503e-38
0.82579648 -0.34395611 2.4305687 1.280693e-38
0.796718 -0.33888993 2.4221778 1.0776834e-38
0.57709509 -0.3369838 2.3712871 1.1607668e-38
0.47523957 -0.33542567 2.3448055 1.1700946e-38
0.89917523 -0.3119795 2.4472525 9.6701309e-39
-0.76114875 -0.36719382 2.0533578 8.2911607e-39
-0.74072039 -0.35665891 2.0577998 8.1989525e-39
-0.64803547 -0.34325883 2.079304 6.7227378e-39
0.45540449 -0.31093282 2.3373227 1.3083159e-38
0.28948981 -0.30858102 2.2064691 1.049339e-38
0.69278759 -0.30078682 2.3965659 1.2251596e-38
0.96176624 -0.29894385 2.4627242 1.1605871e-38
-0.86788809 -0.34332663 2.0307858 1.0043599e-38
0.56072271 -0.29777908 2.3629658 1.252999e-38
-0.87832582 -0.3289389 2.0199833 1.0963389e-38
-0.51207846 -0.3255527 2.106868 9.7619482e-39
0.70914471 -0.2783213 2.4022455 1.1788457e-38
0.71050209 -0.28541362 2.4022527 1.3082438e-38
0.831608 -0.2750642 2.4333699 1.1976812e-38
-0.86500758 -0.31904024 2.0255423 1.1331819e-38
-0.64538491 -0.3105129 2.0784152 8.8399961e-39
-0.64573628 -0.31928593 2.0786428 1.1699504e-38
0.33146507 -0.27050331 2.2315886 8.7441893e-39
0.72083127 -0.26974344 2.4059701 1.2066482e-38
-0.79045463 -0.30746353 2.0428824 1.2069384e-38
-0.31296524 -0.28004307 2.0801222 9.754377e-39
0.52595639 -0.27146956 2.3570592 1.123817e-38
0.72488397 -0.26335695 2.407644 6.1710031e-39
-0.83590412 -0.29743388 2.0323453 1.1978267e-38
-0.26469615 -0.27441406 2.0971789 6.8070021e-39
0.38978124 -0.24827845 2.219547 6.1648711e-39
0.44688773 -0.26439753 2.3380914 1.0589195e-38
0.57097626 -0.25766852 2.3667717 1.2715468e-38
0.60962087 -0.25213185 2.3753657 1.0409141e-38
0.76028728 -0.24697687 2.4161561 1.1977171e-38
-0.7164591 -0.28004029 2.0605149 1.169987e-38
-0.67223835 -0.27971759 2.0712223 1.0130012e-38
0.16919689 -0.24562663 2.1435928 7.9176726e-39
0.27376205 -0.2485193 2.2229509 1.1875612e-38
0.48605418 -0.25251108 2.3451331 1.3174641e-38
0.57540625 -0.24995075 2.3714283 1.2531431e-38
0.69532329 -0.24056774 2.3978629 1.1146702e-38
-0.80573827 -0.27617431 2.0397916 1.1424011e-38
0.69032604 -0.23256333 2.394912 9.118392e-39
0.87445784 -0.22366455 2.4409771 9.0261992e-39
0.95419997 -0.21976787 2.4598911 9.7630426e-39
0.9357205 -0.22808288 2.4551694 1.1607314e-38
0.95218283 -0.22796205 2.4578722 9.7633985e-39
-0.95690835 -0.27069581 2.0062351 7.9227201e-39
-0.67325348 -0.24826036 2.0672796 1.2163367e-38
0.64558625 -0.20821287 2.3847506 1.0501687e-38
0.6402024 -0.21675779 2.3825228 1.1423284e-38
0.81060123 -0.20838018 2.4254944 1.2530351e-38
-0.88301986 -0.23846303 2.0212803 1.1148857e-38
-0.85609746 -0.24135114 2.0268483 1.1703468e-38
-0.8645072 -0.24126907 2.025002 1.0504926e-38
0.89429045 -0.19850422 2.4422028 9.9481569e-39
0.97838897 -0.19500096 2.4659884 1.1053424e-38
0.29310057 -0.19100881 2.229378 1.1505383e-38
-0.85963005 -0.21904816 2.0231569 1.1333968e-38
-0.78898948 -0.2077654 2.0425231 1.0687521e-38
-0.84933823 -0.20171501 2.0246255 1.0781518e-38
0.73265648 -0.17125197 2.4046187 1.0686076e-38
-0.7294156 -0.19333333 2.0568967 1.0781162e-38
-0.67077231 -0.19418867 2.0677884 1.1239613e-38
0.6121515 -0.15719742 2.3691227 9.0265453e-39
0.64189368 -0.16477102 2.3833151 1.2532511e-38
0.97890854 -0.15159507 2.4642034 9.6722889e-39
0.22220193 -0.15927517 2.212337 6.996445e-39
0.17837475 -0.15113188 2.1544414 8.5612512e-39
0.25114441 -0.14656653 2.2167718 5.8890128e-39
0.3278842 -0.14449576 2.2367344 1.159758e-38
0.95942694 -0.1299673 2.4611259 1.1884624e-38
-0.65639555 -0.15732548 2.0711958 1.225592e-38
0.1146482 -0.13103519 2.1378617 5.6124232e-39
0.72321194 -0.13034193 2.4014504 1.114561e-38
0.96889442 -0.12138268 2.46333 1.2069733e-38
0.62299907 -0.12175236 2.3722849 1.0500242e-38
0.65548009 -0.12009913 2.3858719 1.2255918e-38
0.75060576 -0.1137469 2.4097512 1.3451941e-38
0.77269274 -0.12279414 2.4133596 1.216156e-38
0.78452498 -0.11696993 2.4195237 9.1180151e-39
0.82858479 -0.11557456 2.4252505 1.2346317e-38
0.84843695 -0.11899281 2.429961 1.3083872e-38
0.88729012 -0.11361089 2.439837 9.9506666e-39
0.9017027 -0.11332753 2.4448304 1.0135785e-38
0.0033749 -0.1040071 2.1144969 1.0870029e-38
0.61596411 -0.1023703 2.3735769 1.1426527e-38
0.598557 -0.10522113 2.3715255 6.3579195e-39
0.71022141 -0.10319725 2.3986313 1.1793867e-38
0.41916585 -0.093193606 2.2366185 8.833857e-39
0.6770829 -0.093172938 2.3902614 1.2529623e-38
0.84594476 -0.087434947 2.4290521 9.3956936e-39
-0.79208565 -0.099113941 2.0365613 1.059604e-38
0.17764644 -0.083656259 2.1531701 8.2843042e-39
0.35951912 -0.083032005 2.2459981 7.0872001e-39
0.28938282 -0.077047385 2.1958461 9.3852511e-39
0.61598039 -0.084706284 2.3701785 1.0962661e-38
-0.14307407 -0.07964927 2.0800161 1.2242588e-38
-0.1089712 -0.078841276 2.084374 1.1135882e-38
0.81062096 -0.062979415 2.4203207 9.3949817e-39
-0.79175568 -0.075578809 2.0352774 1.1332163e-38
-0.68546826 -0.074369162 2.0661535 9.9532016e-39
0.15843275 -0.063635789 2.1485875 6.0734027e-39
0.28997982 -0.060135067 2.1995566 7.4502093e-39
0.97123557 -0.053174563 2.4602921 9.3031476e-39
0.20380297 -0.048752394 2.2054114 6.2563548e-39
0.212753 -0.055939831 2.2058721 4.966695e-39
0.6607796 -0.045410529 2.3819103 1.1794581e-38
0.74886948 -0.048427302 2.4036713 1.2345232e-38
0.96979713 -0.046124451 2.4595106 1.2808377e-38
-0.14744118 -0.047262806 2.0741265 1.233442e-38
0.13253902 -0.039607514 2.1408877 6.1645137e-39
0.69776452 -0.034522638 2.3944886 7.8312518e-39
0.77830893 -0.03275663 2.4160681 9.3996579e-39
0.82939267 -0.032334581 2.4247656 6.5383507e-39
0.7975924 -0.039141249 2.4154348 1.160803e-38
-0.77915782 -0.049739979 2.0390615 1.1332895e-38
-0.59770209 -0.038227994 2.081094 8.2918642e-39
0.13619734 -0.030015606 2.1427016 6.9017228e-39
0.61342621 -0.024556277 2.3690743 1.151475e-38
0.80306506 -0.022488026 2.4196832 1.0686079e-38
-0.0099036396 -0.022125807 2.0484972 1.0223236e-38
0.58430386 -0.01455979 2.3619747 1.2438147e-38
0.7526325 -0.01400239 2.4062142 1.3544498e-38
0.79545158 -0.0181225 2.4144237 1.15162e-38
0.89397168 -0.011200519 2.4390304 1.2255918e-38
0.94743234 -0.012139416 2.4545877 1.2530345e-38
-0.89974207 -0.024865 2.0104616 7.0969265e-39
-0.87376338 -0.029506661 2.0177717 8.8450421e-39
-0.66887122 -0.018404184 2.0611 1.0871548e-38
0.079176486 -0.010763699 2.0962231 8.4737247e-39
0.14287879 -0.0086139468 2.1420233 8.4636367e-39
0.29329634 -0.0081845243 2.2271194 1.214967e-38
0.61365265 -0.0080327233 2.3706591 1.0500598e-38
0.69394135 -0.0031492179 2.3893335 1.1699496e-38
0.80080599 -0.0096054459 2.415678 1.3912199e-38
-0.91597986 -0.016304513 2.0022087 1.0596046e-38
-0.88973963 -0.015474969 2.0088434 7.5550376e-39
-0.73963797 -0.0064695058 2.0431814 1.1884973e-38
-0.66355228 -0.010646119 2.0603311 6.908571e-39
0.22017451 -0.0055775493 2.2058411 9.2051829e-39
0.564592 0.00047642854 2.3565218 1.179206e-38
0.58519387 0.0048601422 2.3620481 9.0243845e-39
0.75303555 0.005808542 2.4036391 1.2438149e-38
0.77945966 0.00318062 2.4088652 1.3359383e-38
0.7661733 0.00066609465 2.4086154 1.1425442e-38
-0.056782112 0.0081221778 2.0821977 9.7561818e-39
0.49886072 0.012789697 2.2381635 1.0776827e-38
0.56325495 0.013462853 2.3569856 1.1977167e-38
0.80347252 0.012239888 2.4169688 1.1148499e-38
0.78766376 0.011572341 2.4108899 1.0964465e-38
0.8975293 0.01518896 2.4399879 1.151835e-38
0.78082067 0.009893789 2.4081433 1.0224378e-38
0.92656124 0.018421451 2.4479539 9.8555843e-39
-0.3589026 0.016045935 2.0693862 1.1227349e-38
-0.60478228 0.0085997209 2.0744169 7.0022043e-39
0.24464655 0.018858338 2.2136197 6.9020844e-39
0.4992739 0.019901529 2.2338324 5.6174678e-39
0.60095024 0.02500972 2.3715513 1.1611638e-38
0.63500464 0.019053446 2.3770797 1.1797832e-38
0.66026711 0.025937837 2.3791115 1.2439953e-38
0.96127689 0.02225879 2.4577439 7.0007708e-39
-0.79565889 0.020771114 2.0321171 5.6192657e-39
-0.71392882 0.018799322 2.0524256 7.277715e-39
0.50838053 0.030373126 2.2319882 1.1783047e-38
0.56318289 0.03435969 2.352458 9.1169459e-39
0.73728329 0.03286868 2.3975835 1.0869378e-38
0.87067664 0.035343178 2.4323382 1.123672e-38
-0.96556705 0.026727244 1.9928554 1.0138312e-38
0.26656556 0.036001034 2.2173059 1.297871e-38
0.4975462 0.036031161 2.2339122 1.08647e-38
0.6384328 0.042006135 2.3739252 1.2529982e-38
0.67736018 0.041683089 2.3847744 1.0131092e-38
0.78404284 0.043225627 2.4073741 1.1884253e-38
0.80703944 0.04273615 2.4136481 1.0223654e-38
0.91570812 0.044958375 2.4415596 9.7630342e-39
0.97527933 0.045992177 2.4584544 9.5786415e-39
-0.8296535 0.049232516 2.0207396 1.3655125e-38
-0.85423684 0.04984419 2.016113 1.5494723e-38
-0.10822245 0.048047323 2.0817971 1.0951489e-38
-0.49227163 0.040066708 1.9940857 1.3535852e-38
0.65458459 0.055066846 2.3781939 1.170167e-38
0.91122442 0.057757471 2.442378 1.0961219e-38
-0.68997461 0.056411225 2.051177 7.0004023e-39
-0.67267954 0.061457548 2.0570767 6.9089325e-39
0.62456602 0.065812096 2.3688872 8.8425282e-39
0.79731065 0.064498216 2.409565 1.2622901e-38
0.8437832 0.066683039 2.4271507 1.0131091e-38
0.88970596 0.0620846 2.4364293 1.0869742e-38
0.47976682 0.06849613 2.2067597 1.4916267e-38
0.60956937 0.071665227 2.3682725 8.1964259e-39
0.76343149 0.077225864 2.4008708 9.9513855e-39
0.77588773 0.07034269 2.4061697 1.3359381e-38
0.81884605 0.073172659 2.4209163 8.9332637e-39
0.88919914 0.074426003 2.4340749 1.0407322e-38
-0.82397735 0.080998801 1.9838545 1.9390229e-39
0.70441991 0.086221568 2.3928673 1.2994936e-38
0.87564754 0.078939185 2.4314487 1.0686067e-38
-0.65148842 0.086442426 2.0679955 3.4090943e-39
0.77465338 0.098239392 2.4077821 1.234631e-38
0.83992368 0.10301952 2.4237673 1.2345596e-38
0.89618987 0.10780402 2.4371717 1.0499513e-38
-0.85223109 0.11423168 2.0116 1.4203259e-38
-0.097786106 0.10847476 2.0330579 1.3536219e-38
0.11557398 0.11000786 2.0671704 1.5287936e-38
0.34064469 0.11165175 2.242696 1.0492668e-38
0.41168228 0.10971259 2.2159185 8.5616029e-39
0.82523078 0.11864691 2.4162035 1.1331799e-38
-0.71915144 0.12044629 2.0452688 1.0964819e-38
-0.43743357 0.11500566 1.9299877 8.4715625e-39
0.044793468 0.11537694 2.0453446 1.2522789e-38
-0.95751739 0.13753462 1.9884874 1.1242861e-38
-0.38422617 0.12715508 1.9438511 1.1420033e-38
-0.36521053 0.12676315 1.9484307 8.8403436e-39
0.0098236399 0.1204408 2.036437 1.2819579e-38
0.0064500943 0.12941907 2.0361695 6.6265779e-39
0.038793597 0.1286459 2.0445881 7.4538176e-39
0.40220883 0.12018542 2.1339786 1.325927e-38
0.50450265 0.12689695 2.1578946 1.2798652e-38
0.65678102 0.13511892 2.37764 1.2436699e-38
0.79284602 0.12954326 2.4103565 1.2898404e-38
-0.37541196 0.13235259 1.9471594 7.7365198e-39
-0.067343265 0.13359502 2.0196736 1.0497728e-38
-0.0576775 0.13916726 2.0229874 1.0590647e-38
0.2416068 0.13603431 2.0947258 9.0254663e-39
0.086738177 0.13466243 2.057209 1.0682119e-38
0.25970924 0.12979954 2.1006827 8.0127521e-39
0.22380485 0.13517426 2.088321 7.4548994e-39
0.26650831 0.13536406 2.1005986 6.9085668e-39
0.27487478 0.13047513 2.1030424 1.1235285e-38
0.40003183 0.13222688 2.1338937 1.0498084e-38
0.51125288 0.1326884 2.1583304 5.4291109e-39
0.53428137 0.1387462 2.165689 6.2581555e-39
0.9508273 0.1429646 2.4492733 9.947787e-39
-0.94370884 0.15866165 1.9904722 7.0025687e-39
-0.76885521 0.15206546 2.0337005 5.3434005e-39
-0.75957131 0.1619876 2.036669 1.0135065e-38
-0.50132382 0.14249301 1.9153059 7.0911448e-39
-0.24440593 0.14599307 1.9772326 1.3257825e-38
0.097836338 0.140922 2.0595586 1.0682841e-38
0.5596481 0.14545788 2.1726208 9.1165802e-39
0.24490041 0.14155619 2.0958288 1.3353627e-38
0.56490368 0.13950583 2.1745968 9.0265467e-39
-0.95120865 0.16560617 1.9933127 1.2255919e-38
-0.90842402 0.16594943 1.9999475 1.1978976e-38
-0.86733663 0.17270108 2.0085068 9.493308e-39
-0.82608062 0.16368006 2.0188708 1.0783683e-38
-0.37225723 0.1598832 1.944115 1.1140202e-38
0.65339768 0.15910414 2.3735824 1.2071891e-38
0.33025697 0.15774348 2.1163027 8.9336294e-39
0.79583704 0.16672242 2.4084766 1.0317288e-38
-0.50121683 0.16406074 1.9128473 3.867176e-39
-0.42201981 0.17019294 1.9348128 8.6566796e-39
-0.37575993 0.16566664 1.9442351 5.3397935e-39
-0.19801728 0.16070352 1.9865779 1.3166354e-38
-0.06603878 0.16096464 2.0177577 1.2335153e-38
0.24373753 0.14687395 1.8103211 7.272313e-39
0.26356289 0.16380525 2.0973921 1.2705732e-38
0.39744496 0.1644689 2.1313064 1.3348943e-38
0.92284232 0.17423253 2.4410467 1.3083515e-38
0.23427884 0.17144324 2.0908267 1.2980879e-38
0.28321537 0.16926783 2.1036079 6.4432712e-39
0.24124323 0.1691384 2.0917938 6.3503497e-39
0.29662067 0.17458808 2.1082196 9.9452674e-39
0.2751371 0.17521112 2.1020489 1.252026e-38
0.32148606 0.16824529 2.1122808 9.3913734e-39
0.39433616 0.17069361 2.1293249 6.7187707e-39
0.42397982 0.17071795 2.136168 4.8788126e-39
0.50481111 0.17573029 2.1580112 1.0866153e-38
0.7837317 0.18018892 2.4053242 1.2071526e-38
0.82843482 0.18313903 2.4188936 1.2346675e-38
-0.87356544 0.20194902 2.0083022 1.105883e-38
-0.85771906 0.20508943 2.0095243 1.0784406e-38
-0.8450225 0.19853309 2.0115578 1.1890029e-38
-0.52223223 0.18273428 1.90942 7.1826201e-39
0.4198367 0.18266433 2.1373432 9.2094961e-39
-0.49041829 0.18416849 1.9172866 1.0218958e-38
-0.74149889 0.20773958 2.0385592 9.4918605e-39
-0.73771489 0.21697603 2.0367315 1.1239242e-38
0.41546375 0.189898 2.1333377 1.3535135e-38
0.78988051 0.20705745 2.4033303 1.105593e-38
0.89827347 0.20621477 2.4342136 1.2900931e-38
0.84600198 0.20447095 2.4213772 1.2808015e-38
-0.89932597 0.22318514 1.998091 7.6483136e-39
-0.78237861 0.22389378 2.0269139 8.3844227e-39
-0.12046332 0.20467013 1.9767838 8.8381884e-39
0.028897975 0.20506218 2.0127277 8.0105885e-39
0.82319689 0.2161164 2.416116 7.5557411e-39
-0.95181322 0.24075656 1.9887853 1.2074423e-38
-0.85491931 0.23982655 2.0096748 8.8479428e-39
0.71335036 0.22227159 2.3887992 1.3824702e-38
0.7364527 0.22848761 2.3946052 1.0592799e-38
0.71897197 0.22922589 2.3894849 1.0500958e-38
0.72903454 0.22454661 2.3951743 1.2532147e-38
0.74426699 0.22326329 2.3986175 1.1793139e-38
0.839297 0.22152191 2.4207869 1.2809456e-38
-0.97174644 0.2444313 1.9835522 1.1431944e-38
0.81526399 0.22973822 2.4128103 1.2253395e-38
-0.8866291 0.25580624 1.999778 9.7698907e-39
0.96301621 0.24623746 2.4477017 1.2621452e-38
0.95707393 0.24242033 2.4480371 1.2805844e-38
-0.89161307 0.26920307 2.0012431 1.0782236e-38
-0.86366254 0.27374986 2.0049555 9.3056602e-39
-0.70460892 0.26737767 2.046087 4.422163e-39
-0.76323885 0.27291086 2.0293875 8.6599306e-39
0.068475962 0.20050596 1.6445578 1.0031335e-38
0.69414002 0.25559393 2.3812943 1.2810176e-38
0.95913947 0.25074098 2.4491866 1.0222928e-38
-0.8887136 0.27924952 2.0017126 8.4762498e-39
0.72949195 0.26892808 2.3927872 1.1792051e-38
0.74630743 0.25925234 2.396553 1.3084959e-38
0.86445773 0.26295045 2.4255798 9.8544997e-39
0.77161449 0.27123627 2.4027512 7.2755584e-39
0.89542365 0.27410129 2.4356604 9.4900528e-39
0.9229272 0.27748075 2.4441414 1.0413462e-38
-0.6820389 0.30205333 2.0461156 8.936142e-39
0.76352608 0.28725246 2.3932307 9.3956922e-39
0.84275573 0.284143 2.4185631 1.2071172e-38
-0.76655954 0.32715151 2.0282214 6.267156e-39
-0.69560343 0.32411727 2.0429058 8.8443121e-39
-0.7055006 0.32793912 2.0426362 6.3561049e-39
0.56652814 0.28324202 2.1641507 6.6283744e-39
0.74323189 0.30720025 2.3917572 1.253178e-38
0.90544021 0.30028477 2.4335439 9.5800863e-39
-0.96670437 0.34112492 1.9808661 5.7129103e-39
-0.76554245 0.33661523 2.0292833 8.6631746e-39
0.76366472 0.30847493 2.3965342 8.0131333e-39
-0.68374205 0.34077802 2.0471194 8.9419209e-39
-0.76924199 0.34934852 2.0227771 6.6359554e-39
0.0049630483 0.25954258 1.6018193 1.1599743e-38
-0.97668195 0.35716116 1.9788994 9.5844163e-39
0.03984423 0.26737306 1.6102856 6.9946457e-39
0.66050208 0.33628002 2.3705926 1.1793504e-38
0.83129734 0.33407503 2.4133596 9.4875333e-39
0.89900881 0.33138224 2.4337101 1.1885339e-38
0.79025584 0.33446372 2.4049122 1.1703115e-38
-0.72389048 0.37041715 2.0341327 8.3851388e-39
0.84425211 0.34362704 2.4171591 1.3636691e-38
0.88028258 0.34034467 2.4257467 1.3455185e-38
0.81868637 0.34249344 2.4087186 1.1977897e-38
-0.94859886 0.38479558 1.9680506 1.0046457e-38
0.82043219 0.35877025 2.4204247 3.5916835e-39
0.67412615 0.36126661 2.3732669 1.2897323e-38
0.72321522 0.36412454 2.3859458 1.1152834e-38
0.83723032 0.36340606 2.415045 1.1979328e-38
0.71336442 0.37003791 2.3823707 1.3358668e-38
0.84464198 0.37291107 2.4148691 1.2347757e-38
0.93820578 0.36783943 2.4391673 1.1613082e-38
-0.73512477 0.41091886 1.9993745 8.5713251e-39
0.21215725 0.29644203 1.6503178 1.2429509e-38
0.32911068 0.29461458 1.678153 1.0031695e-38
0.22881597 0.30133313 1.654505 8.0077201e-39
-0.7112956 0.41421688 2.0043414 3.8729521e-39
0.012283732 0.31643897 1.6021817 7.0864826e-39
0.14961632 0.31780928 1.6346353 1.2798654e-38
0.31753305 0.31573042 1.6757236 1.2797931e-38
0.22962117 0.31867045 1.6535425 8.2843056e-39
0.32830006 0.31799448 1.6769871 8.8335095e-39
0.32484496 0.32184857 1.6765683 1.2981598e-38
0.69489628 0.40903986 2.3468668 1.1796018e-38
0.77323139 0.41808182 2.365231 1.2349548e-38
0.76712608 0.41349694 2.3643148 9.7684404e-39
0.95148009 0.40828356 2.4093509 1.1429764e-38
0.99370283 0.41041884 2.4206758 1.2351719e-38
-0.51562053 0.42177173 1.8755562 8.1964147e-39
0.011294328 0.34200341 1.6021779 8.281779e-39
0.99195927 0.41775855 2.4205496 8.7553604e-39
-0.0057668244 0.35230771 1.5972657 1.3075241e-38
0.039697062 0.34705734 1.6085304 1.0221867e-38
0.22932898 0.34522721 1.6536473 9.1093775e-39
0.31556484 0.34767953 1.6734674 7.8215211e-39
0.54169738 0.41527539 2.132283 1.0678501e-38
0.6072948 0.40652111 2.1522036 9.2033752e-39
1.0200744 0.43568122 2.423681 1.6230483e-38
0.20470054 0.35347405 1.6465495 8.7406034e-39
0.28146747 0.35382655 1.667199 1.1237098e-38
0.21433227 0.3588168 1.6487738 1.1874893e-38
0.59879673 0.44227797 2.1466453 7.7365156e-39
0.07609202 0.40806749 1.5918393 8.9289449e-39
0.21836348 0.40994138 1.6258985 9.4806767e-39
0.3508715 0.41094583 1.6578393 7.9183901e-39
0.19160807 0.42945993 1.6187278 9.3895671e-39
-0.061178625 0.4435111 1.5588069 1.1048733e-38
0.11718055 0.44779637 1.5993749 6.5412304e-39
0.32417983 0.43576428 1.6503876 1.1692301e-38
0.33643165 0.43683502 1.65315 8.6538013e-39
0.33647746 0.44351721 1.6534404 8.470852e-39
0.50294644 -0.73810339 2.3630362 1.2622188e-38
0.48506317 -0.74149364 2.3579383 1.3544137e-38
0.80606568 -0.73553568 2.4367266 1.1884985e-38
0.77033782 -0.73346949 2.4286301 1.1426527e-38
0.76994538 -0.72509891 2.4308641 4.7909582e-39
0.51323611 -0.72857052 2.3666523 1.086866e-38
0.63824666 -0.69390982 2.3922534 1.2162293e-38
0.89663249 -0.68540275 2.4606872 1.0316212e-38
0.59952468 -0.68092984 2.3824697 1.2530349e-38
0.66950434 -0.6742788 2.39904 1.2345603e-38
0.65683633 -0.68165714 2.3963277 1.1606236e-38
0.04370084 -0.75245267 2.4360259 4.6007824e-39
0.58963549 -0.6494996 2.3838792 7.4599455e-39
0.5959093 -0.66255397 2.3823051 1.1610918e-38
0.4279044 -0.638915 2.344079 1.2532511e-38
0.38825023 -0.64021623 2.3340719 1.3176082e-38
0.63297051 -0.6242789 2.3891282 1.1796027e-38
0.89575267 -0.61224568 2.4538794 1.0131108e-38
0.73933941 -0.62451416 2.4198887 1.2437798e-38
-0.45281556 -0.6863417 2.1371512 9.3006099e-39
0.55961406 -0.61935782 2.3720231 1.2437431e-38
0.60430944 -0.61802173 2.3818922 1.1609831e-38
0.76099837 -0.60436302 2.4287956 1.0875885e-38
0.9390763 -0.5959788 2.4667184 1.1329292e-38
-0.43470564 -0.65215057 2.1359155 1.1880651e-38
-0.47596282 -0.64841354 2.126425 1.1605148e-38
-0.401508 -0.64976549 2.1490252 9.8584766e-39
0.39498392 -0.59897673 2.3327756 1.3821457e-38
0.34525603 -0.6116991 2.3187079 1.4557213e-38
0.62777042 -0.60216248 2.3885128 1.1885343e-38
0.6841532 -0.58026654 2.3984699 1.2625436e-38
0.70713615 -0.5951879 2.4072855 1.0687153e-38
0.94273794 -0.57821465 2.4653039 1.3544864e-38
-0.75889587 -0.66253412 2.0652139 1.0780069e-38
-0.45091996 -0.62526596 2.1365833 1.2713296e-38
-0.4412469 -0.63811183 2.1378031 1.280693e-38
0.39871109 -0.58317065 2.33201 1.2163014e-38
0.44332552 -0.57848084 2.3416545 1.2254128e-38
0.58194506 -0.56943053 2.3782623 9.8573892e-39
0.4860619 -0.57277387 2.3557415 9.7677201e-39
0.71705866 -0.56611836 2.4118118 6.1717234e-39
0.91190428 -0.56925529 2.4620309 1.1883905e-38
-0.96429157 -0.63243169 2.0179739 1.2529623e-38
0.55527061 -0.55364758 2.3663208 1.2162648e-38
0.68192255 -0.55841494 2.4019799 1.1702033e-38
0.65862155 -0.54845631 2.3972042 1.2993485e-38
-0.85502398 -0.60832202 2.0396936 1.2714012e-38
-0.3327277 -0.58021164 2.1574905 1.0778275e-38
0.4267638 -0.53171724 2.3365355 9.3935314e-39
0.45710045 -0.53306103 2.3468468 8.5662903e-39
0.45601028 -0.54396117 2.3490713 1.2348484e-38
0.55078441 -0.53293073 2.3691576 1.2438514e-38
0.72439826 -0.5367806 2.4121029 5.2512119e-39
-0.48470861 -0.57380056 2.1234128 1.3266109e-38
0.43374413 -0.52562714 2.3407419 1.3544145e-38
0.47465384 -0.51283497 2.3511541 1.1236722e-38
0.82229543 -0.49570379 2.4344628 1.1057024e-38
-0.89744574 -0.55569571 2.0293951 6.7263349e-39
0.58385205 -0.49613816 2.3783059 7.0022001e-39
0.59840143 -0.49707869 2.3791153 1.1421841e-38
0.65014261 -0.49190646 2.3935401 8.1964273e-39
0.73817378 -0.49185386 2.4116745 1.1977173e-38
0.82094365 -0.47794348 2.4352863 1.2071898e-38
-0.88761735 -0.54999387 2.035877 1.151548e-38
-0.75106514 -0.54483539 2.0625393 1.0776463e-38
-0.81721789 -0.52983946 2.0512049 1.1518357e-38
-0.53386563 -0.52998734 2.1099703 8.3818976e-39
0.4695102 -0.48286027 2.3483362 1.1050165e-38
0.71612567 -0.46303529 2.4073026 1.1883529e-38
-0.58161587 -0.49378163 2.0963275 1.2158679e-38
-0.80575728 -0.51386702 2.0502775 1.1423637e-38
-0.83180636 -0.49802941 2.04075 1.0411999e-38
-0.77208167 -0.49145436 2.0523236 1.1423639e-38
-0.68750632 -0.48339924 2.0747824 9.8537809e-39
0.44957128 -0.42580727 2.3409088 1.0314773e-38
0.66237342 -0.41724706 2.3917992 1.2159763e-38
0.6441344 -0.43098742 2.3889999 1.0960493e-38
0.67550516 -0.43114242 2.3940029 1.299169e-38
0.8204332 -0.42815238 2.4353263 9.7633929e-39
0.89902771 -0.40942863 2.4528887 1.1332888e-38
-0.75272846 -0.46909773 2.0618439 1.1242134e-38
-0.043431591 -0.4226779 2.1074402 1.1782696e-38
-0.063416459 -0.41359815 2.0974627 9.2988204e-39
0.37671489 -0.41392773 2.3216836 1.2803688e-38
0.41729486 -0.41998374 2.3344758 9.3042308e-39
0.43206397 -0.41836083 2.3358333 1.2162294e-38
0.46314156 -0.4178271 2.3448331 1.2898418e-38
0.48996401 -0.41174322 2.3509941 1.299133e-38
0.47564512 -0.40849191 2.3493614 1.2344883e-38
0.51627439 -0.41017452 2.3583307 9.027267e-39
0.73870403 -0.39307114 2.4072223 1.2345958e-38
-0.53884083 -0.43238029 2.1057835 1.1237444e-38
-0.27198485 -0.40120578 2.0842075 4.9684859e-39
0.24332429 -0.39690101 2.2167308 7.0886336e-39
0.45124269 -0.39966509 2.3421888 1.0409843e-38
0.50693595 -0.39962035 2.358988 9.4007467e-39
0.63186651 -0.39168966 2.3893809 1.096483e-38
-0.42510185 -0.40274844 2.1363349 7.1855096e-39
0.68984348 -0.35396975 2.3973632 1.2347401e-38
-0.72537154 -0.39956447 2.0601747 9.3064001e-39
-0.67728186 -0.39012414 2.0748389 1.1056662e-38
-0.51189119 -0.38548148 2.1117287 9.4900542e-39
-0.49717966 -0.39071137 2.1173522 1.2806572e-38
-0.04488543 -0.35991341 2.1058536 1.076854e-38
0.67780775 -0.34319925 2.396589 1.1054503e-38
0.70438296 -0.33670372 2.4036438 1.0870472e-38
-0.61638582 -0.37342927 2.0850468 1.0410571e-38
-0.83192694 -0.38550967 2.036818 9.3074706e-39
0.47712538 -0.33726233 2.3445747 1.2253402e-38
0.57752013 -0.32403511 2.3692627 1.1703115e-38
0.73700082 -0.32385802 2.4102821 1.1610555e-38
-0.68218893 -0.3528659 2.0797613 9.4875291e-39
-0.49197662 -0.33754259 2.1118093 9.5775639e-39
-0.86354214 -0.32833266 2.0268312 1.1147779e-38
-0.6464709 -0.31999701 2.0810235 1.17917e-38
0.73219782 -0.27882403 2.4065866 1.3265028e-38
0.86202496 -0.2717391 2.4439933 1.1789896e-38
0.76759261 -0.27268481 2.4169407 1.2068654e-38
-0.80247366 -0.3062391 2.040756 1.225233e-38
-0.79714799 -0.31627676 2.041389 1.1054859e-38
-0.82984543 -0.30680978 2.0302901 1.114634e-38
0.2781485 -0.25754485 2.2257578 9.3873965e-39
0.39463636 -0.2497388 2.2172687 7.0897168e-39
0.67857432 -0.25363138 2.3931265 1.1794588e-38
0.74988329 -0.26170442 2.4146645 7.3677471e-39
-0.87960213 -0.27693531 2.0192659 1.1055225e-38
-0.78100264 -0.27961776 2.0472505 1.1976827e-38
-0.75804442 -0.29196155 2.0482531 1.2345968e-38
0.46518365 -0.25667652 2.3414385 1.4186995e-38
-0.93288416 -0.2560077 2.0127335 1.0874077e-38
-0.64933324 -0.26268756 2.0774941 1.1425082e-38
0.78534728 -0.21951939 2.4172995 1.0039621e-38
0.90966588 -0.2118035 2.4499598 1.0684272e-38
0.69571137 -0.19095559 2.3986204 5.8007731e-39
0.85883671 -0.18908019 2.4411926 4.8813475e-39
0.90861738 -0.19240984 2.4487052 9.4871676e-39
-0.96759051 -0.22629559 2.0028057 1.1610198e-38
-0.69732583 -0.2101187 2.0613747 1.0041425e-38
-0.65973485 -0.20656933 2.0720141 4.5143601e-39
-0.15354767 -0.19589867 2.0753987 1.0491585e-38
0.25740442 -0.19387726 2.2202466 8.3754068e-39
0.86674225 -0.1730004 2.4425418 1.1978253e-38
-0.68936974 -0.19562525 2.0683305 1.0688246e-38
0.24818133 -0.16147956 2.2158759 1.2797923e-38
-0.86112309 -0.17605411 2.0231516 1.0686798e-38
-0.33482268 -0.16200493 2.0796366 1.1229155e-38
0.31381068 -0.13779327 2.2398536 9.3020658e-39
0.76597166 -0.13363458 2.4127448 1.2530344e-38
0.83648795 -0.1282582 2.4278195 1.3083152e-38
-0.77878177 -0.15738072 2.0458395 1.151728e-38
-0.28530937 -0.13277645 2.0905795 1.1229514e-38
0.61612654 -0.11641565 2.3723526 1.1607311e-38
0.63548106 -0.12617795 2.3814099 1.3176806e-38
0.82844186 -0.115707 2.4248295 1.2438512e-38
0.85500044 -0.11174156 2.4347391 8.5662846e-39
-0.27463651 -0.1077249 2.0873582 8.2810574e-39
0.68564177 -0.089963607 2.3915346 1.0317651e-38
0.61677355 -0.10025977 2.3720241 1.1887143e-38
-0.099019766 -0.089129224 2.0869198 7.7343702e-39
0.11234351 -0.086567394 2.1362615 9.4835718e-39
0.28711149 -0.074525408 2.1937983 1.261353e-38
0.77431393 -0.084677204 2.4129503 1.1608393e-38
-0.65830243 -0.073474616 2.0742371 8.846124e-39
0.221671 -0.070020393 2.2083786 1.2519174e-38
0.8087756 -0.055392377 2.4192526 9.8563242e-39
0.95564795 -0.046621423 2.4562597 1.2899495e-38
-0.95983672 -0.059958387 1.9975301 8.3844311e-39
-0.94618517 -0.047250722 1.9965094 9.5815282e-39
-0.63029766 -0.056049287 2.07164 1.1052687e-38
0.3269161 -0.041676607 2.2347655 1.288724e-38
0.61654627 -0.048103023 2.3717847 1.2254841e-38
0.84887165 -0.026920373 2.4262204 1.4005116e-38
0.89484608 -0.025620399 2.4431248 1.253215e-38
-0.73032373 -0.027859241 2.0489185 4.698387e-39
-0.620906 -0.020756556 2.072314 9.6744483e-39
-0.68099028 -0.039083607 2.0636086 7.277708e-39
0.60348159 -0.012806319 2.3657813 1.2529983e-38
0.78690404 -0.020001093 2.4112966 1.2254485e-38
-0.72756684 -0.014091483 2.0428958 1.0779347e-38
0.60998636 0.00078911055 2.3674102 1.1054132e-38
0.62865138 0.0077671073 2.3738904 1.0962307e-38
0.64294529 -0.0026541417 2.3781722 1.2715822e-38
0.65876824 0.0003771176 2.3860538 1.1517279e-38
0.79430157 -0.0025301941 2.4138734 1.0411297e-38
0.95004743 0.0056857932 2.4540689 1.2623984e-38
0.9659881 0.012975669 2.4553194 1.2163365e-38
-0.90295374 0.0078225955 2.0040898 9.8620948e-39
-0.81989187 0.019064426 2.0302584 7.5553837e-39
-0.86742562 0.0062786564 2.0171096 1.0872278e-38
0.47241107 0.025084559 2.2242062 1.2980882e-38
0.87520498 0.017105212 2.4392748 1.0687881e-38
0.91221899 0.019133348 2.4447577 1.0686787e-38
0.88152707 0.022069225 2.4427412 1.1520526e-38
0.95331937 0.031081162 2.4553165 1.2804049e-38
-0.86222422 0.032710634 2.01755 1.0504928e-38
-0.49179938 0.031894796 1.9955312 7.5456461e-39
-0.12015767 0.031095123 2.0790639 5.9826448e-39
-0.10847076 0.040563699 2.0809145 1.1781249e-38
0.08641813 0.033094216 2.1170413 6.07376e-39
0.13354526 0.03113501 2.1390183 5.9819217e-39
0.50825197 0.039774206 2.2332082 7.085384e-39
0.17733552 0.037542108 2.1509018 8.1009989e-39
0.16822331 0.040922061 2.1493325 1.2702488e-38
0.61212051 0.051613491 2.3706779 9.9477912e-39
0.61150324 0.051307213 2.368293 9.9477926e-39
0.66990149 0.043891639 2.3813868 9.5789988e-39
0.77115536 0.045543477 2.4052906 8.6574013e-39
-0.86927933 0.046056025 2.0136158 1.7524569e-39
-0.51371759 0.059017386 1.9804751 1.3164552e-38
0.16798195 0.050448246 2.1477618 1.1595418e-38
0.6419434 0.070957512 2.373199 1.1515478e-38
0.62905622 0.072762735 2.3755739 1.0130373e-38
0.91993535 0.068677634 2.4434881 1.3818197e-38
0.87911785 0.06531053 2.4347684 1.1421832e-38
-0.8910622 0.071730763 2.0069516 1.161236e-38
-0.87169981 0.087794818 2.0091019 8.9390651e-39
0.83208299 0.076345466 2.4255927 1.179206e-38
-0.90126711 0.11043416 2.0025136 8.1114512e-39
0.76525694 0.098454505 2.4050121 1.096157e-38
-0.78591055 0.12899257 2.0285127 8.017808e-39
-0.015922939 0.12188904 2.0316584 1.2521703e-38
0.03574381 0.11907265 2.0421221 1.2361127e-38
-0.0035828119 0.12195964 2.0317314 1.2613539e-38
0.2379593 0.12536138 2.094651 5.894768e-39
0.71075976 0.1212304 2.384866 2.9655343e-39
0.79294026 0.12958682 2.4106421 1.2898404e-38
-0.39934522 0.13292792 1.9419827 5.9876797e-39
-0.34887713 0.1401113 1.9528193 1.1875969e-38
0.040862635 0.13882107 2.0456486 1.0406614e-38
0.0036595273 0.13882361 2.0358648 9.9463562e-39
-0.01959857 0.1320807 2.0287342 8.008076e-39
0.15077752 0.13951169 2.0733964 9.7626768e-39
0.19632588 0.14031561 2.0830202 1.0498089e-38
0.25457439 0.13986905 2.0976133 8.1975063e-39
-0.46782574 0.24913323 3.8623009 7.6389334e-39
0.37421116 0.13817528 2.1260083 8.3782949e-39
0.53212565 0.13924645 2.1661444 7.1808335e-39
0.95570415 0.15029764 2.4518156 1.1514392e-38
-0.89096528 0.16538207 2.003469 1.151872e-38
-0.43797439 0.16357307 1.9302142 1.1324235e-38
-0.37986541 0.14888561 1.9416867 1.0312591e-38
-0.32454252 0.14710152 1.9561878 1.2335876e-38
-0.28374618 0.160972 1.9688044 1.3811003e-38
0.023195282 0.16399504 2.0420814 1.3534415e-38
0.28996336 0.15355134 2.1055474 1.2890486e-38
0.56027484 0.15577966 2.1731513 1.2797931e-38
0.78720093 0.16440843 2.4065125 1.1333607e-38
0.95523828 0.16876306 2.4502687 1.133072e-38
-0.49438193 0.16755609 1.9165736 1.0862168e-38
-0.47474784 0.18350233 1.9202367 1.1322433e-38
0.21752356 0.17937787 2.0857453 1.344186e-38
0.41185474 0.17516129 2.1355402 1.114129e-38
0.48712647 0.1679021 2.1542003 1.353442e-38
0.70050633 0.19038759 2.3841617 1.2806929e-38
-0.85166144 0.21399687 2.0061617 8.3876836e-39
0.098337099 0.19357626 2.0559072 8.6563153e-39
0.69781673 0.20094062 2.3852191 1.0131451e-38
0.95686305 0.20919324 2.4503293 1.2530348e-38
-0.94963783 0.23017994 1.9869356 9.1256017e-39
-0.79984343 0.22601381 2.0198243 7.7397876e-39
-0.88920105 0.23557019 2.001425 1.1060268e-38
-0.78939295 0.23131311 2.0228813 1.0413102e-38
-0.51797748 0.21280822 1.8830138 9.3866804e-39
0.038237445 0.20880866 2.0142653 5.6192643e-39
0.95602405 0.22336298 2.4459538 1.2068278e-38
0.96984553 0.21477425 2.4520972 7.0925979e-39
0.77154291 0.22305518 2.4070227 1.2625067e-38
-0.51731575 0.25779253 1.9023738 8.9303784e-39
-0.89039719 0.2798478 2.0055075 8.6602795e-39
0.7439664 0.26228404 2.398145 1.2069368e-38
-0.78737789 0.3040553 2.0212963 9.2167099e-39
0.3138141 0.21223976 1.6562016 1.1321352e-38
0.78606409 0.2847923 2.3988743 9.8570277e-39
0.74621433 0.28390679 2.3937414 1.2622189e-38
-0.89672297 0.33074152 2.0007145 8.9412049e-39
0.26620916 0.23135504 1.6530101 1.0493752e-38
0.56651103 0.28343242 2.1640697 6.8124069e-39
0.65754092 0.29999572 2.371326 1.1425807e-38
0.70464361 0.30625391 2.3830137 1.1700231e-38
0.8376404 0.30383408 2.4183242 9.1198298e-39
0.89496946 0.30682477 2.43152 1.1977891e-38
-0.87934721 0.35758075 1.9987111 9.1209186e-39
-0.061533015 0.25343159 1.5871727 1.1322074e-38
0.75690782 0.32299459 2.393914 8.9354539e-39
0.90957767 0.32170162 2.4358153 1.197753e-38
0.92260426 0.33057609 2.4402442 1.1886419e-38
-0.76411831 0.37175438 2.0229549 6.0816858e-39
-0.77199632 0.36082089 2.023371 9.4886067e-39
0.20617691 0.27305365 1.6500077 1.2429506e-38
0.22075602 0.27194962 1.653586 1.2244751e-38
0.1083479 0.26935861 1.6252228 1.1783418e-38
0.67495334 0.35524741 2.3742149 1.2251234e-38
0.67096102 0.33807504 2.3761451 1.1608038e-38
0.81194347 0.34155381 2.4092643 1.1241055e-38
0.93899632 0.33892691 2.4431608 1.1978257e-38
0.6834029 0.36737001 2.3763096 1.0405883e-38
0.72364521 0.37317988 2.3852613 8.9390623e-39
0.73432297 0.36072341 2.3902605 7.5543173e-39
0.78588802 0.36865786 2.4020395 1.3913286e-38
0.81788808 0.3587828 2.4218585 4.7902281e-39
0.94820708 0.36837462 2.4417474 9.2141946e-39
0.15731026 0.29841852 1.637754 9.485018e-39
0.78080857 0.37762994 2.4004848 1.1423636e-38
-0.71690607 0.42378396 2.0000987 7.4646188e-39
-0.51628435 0.40495181 1.8755813 8.1935337e-39
0.83877218 0.39539275 2.3951507 1.1984024e-38
-0.52524722 0.42660668 1.8730597 3.7789418e-39
-0.50898558 0.41223019 1.8780229 4.6987317e-39
0.74222291 0.41539627 2.3581927 1.0321247e-38
0.80647939 0.41805539 2.3743243 8.1099966e-39
0.73320252 0.42493123 2.3558059 1.207297e-38
0.93406582 0.40497926 2.4083567 1.1521962e-38
0.92499804 0.4220311 2.402056 1.170418e-38
1.0150325 0.41101569 2.4248219 1.3180395e-38
0.99380207 0.41012499 2.4209406 1.2351719e-38
0.10738217 0.34818888 1.6229837 1.2798294e-38
0.70923954 0.43404388 2.3494816 1.0044301e-38
0.95763469 0.42761579 2.4088252 1.6602493e-38
0.97021109 0.43142277 2.4123352 3.0425609e-39
1.019382 0.43663707 2.4219437 1.6231202e-38
-0.11860037 0.37540275 1.5637367 1.4735487e-38
0.58339006 0.44035482 2.1441829 1.2245478e-38
-0.10597218 0.40631098 1.5483419 1.0954368e-38
0.12386443 0.41101098 1.6025521 1.0401195e-38
0.35119089 0.41247326 1.6579425 8.4704877e-39
0.3293483 0.42159289 1.6522509 1.2152558e-38
-0.12127429 0.43355423 1.5453333 1.0771781e-38
0.24929123 0.44729641 1.631479 1.1233848e-38
0.33600679 0.44047806 1.6540641 8.8385555e-39
0.34297636 0.44617388 1.654388 1.1048737e-38
0.15247871 0.4563303 1.5482048 4.2406921e-39
0.65878516 -0.70554841 2.398689 1.1426175e-38
0.76729602 -0.69792193 2.4240966 1.1147057e-38
0.94879657 -0.69726592 2.4686134 1.1054507e-38
0.59836125 -0.69301927 2.3851402 1.031802e-38
0.61808014 -0.68380451 2.3923314 1.2348123e-38
0.87939197 -0.6415801 2.4509187 5.4395646e-39
0.66425067 -0.63299716 2.4036627 1.0967352e-38
-0.38839126 -0.67584902 2.1515377 1.2715102e-38
0.3680701 -0.6175614 2.3253491 1.3174642e-38
0.54462969 -0.60499656 2.3733454 1.1795305e-38
0.11884827 -0.58395582 2.1112065 1.1229521e-38
0.47998199 -0.60407293 2.3534606 9.026188e-39
0.30219552 -0.61418825 2.311116 1.2621826e-38
0.1437144 -0.56543291 2.1187994 1.261282e-38
-0.070732199 -0.5043779 2.0592499 3.6809869e-39
0.72640604 -0.50338459 2.4117937 9.8617192e-39
-0.90696687 -0.54259872 2.0303507 1.1887146e-38
0.82607257 -0.45156282 2.4384193 1.1699161e-38
0.84581941 -0.45540148 2.4412742 1.0595324e-38
-0.1285423 -0.45325214 2.0530896 1.1689776e-38
-0.88986349 -0.46024972 2.024847 1.105487e-38
0.40533501 -0.41516888 2.3337107 1.2621102e-38
0.58870506 -0.39117911 2.3809707 1.1426886e-38
0.87330157 -0.36829698 2.4419734 1.0685359e-38
-0.022895407 -0.3747789 2.1142015 1.1137679e-38
0.071876332 -0.32598719 2.1345394 5.1510723e-39
-0.27172974 -0.29669571 2.0884244 9.5739626e-39
0.65521431 -0.27790177 2.3913326 1.133145e-38
0.63950747 -0.28122824 2.3877952 1.0870113e-38
-0.48209262 -0.29888672 2.1168935 9.9445332e-39
-0.31872854 -0.27008116 2.0779369 7.0893539e-39
-0.82060599 -0.27905181 2.0333362 1.1516207e-38
0.77991444 -0.2296256 2.4164379 1.2067569e-38
-0.92736554 -0.25513008 2.0148115 1.0874079e-38
-0.64486635 -0.26142934 2.0773714 1.1792783e-38
0.1219816 -0.19501585 2.1401508 1.1413548e-38
0.64938718 -0.19655165 2.3880031 5.065366e-39
0.92815435 -0.19317283 2.4542181 1.1059541e-38
-0.73228359 -0.21144617 2.0528507 1.0777905e-38
-0.28500652 -0.17944005 2.0923855 1.0952926e-38
0.87976229 -0.14513509 2.4442203 9.4882536e-39
-0.24449503 -0.15170316 2.1020968 1.1505385e-38
0.12308135 -0.13826314 2.1398284 1.159686e-38
0.27761281 -0.14058916 2.2244661 1.2519177e-38
-0.84884375 -0.15187946 2.0246904 1.0135066e-38
0.034439679 -0.12567119 2.1157863 1.1976046e-38
0.42464897 -0.10677615 2.2294247 7.6353152e-39
0.77227259 -0.11810466 2.4133706 1.0499878e-38
-0.92700255 -0.12451217 2.0053859 1.1886423e-38
0.84350514 -0.089110263 2.4339604 9.5804464e-39
0.10422521 -0.078071378 2.1342654 1.2611012e-38
0.75778031 -0.076685712 2.4085197 1.1793142e-38
0.59547663 -0.047937673 2.3708141 1.2251236e-38
-0.12239748 -0.040267657 2.0807655 9.2955666e-39
0.83471799 -0.036139797 2.4261825 1.0316927e-38
-0.89846009 -0.040027212 2.0095706 1.069149e-38
-0.92175615 -0.034657691 2.0049713 1.2164815e-38
-0.85693938 -0.040246077 2.020237 1.1705279e-38
0.78827202 -0.019924589 2.4154882 1.2438158e-38
0.1003442 0.0056746937 2.1139269 9.3863231e-39
0.50251329 0.0010464613 2.2401445 7.3634241e-39
0.3605859 0.01196192 2.2401316 1.1780526e-38
0.91694021 0.032458652 2.4465401 1.289732e-38
-0.72760242 0.048982017 2.048059 9.1201829e-39
-0.70541215 0.065080784 2.0531902 9.0272698e-39
0.76361972 0.066110522 2.4019759 1.133217e-38
-0.85862631 0.081809297 2.0119984 1.6635066e-39
-0.85407674 0.10530693 2.0113816 1.4480931e-38
0.46358418 0.10624386 2.1810825 8.5630322e-39
-0.22093645 0.12353571 1.985507 7.9191188e-39
-0.44018334 0.11777502 1.9269288 8.7477836e-39
0.65890437 0.12923551 2.3781803 1.1700223e-38
-0.4949033 0.13424748 1.9154311 1.0126045e-38
-0.44138482 0.14719011 1.9323477 4.1470097e-39
0.032843266 0.13161507 2.0402412 1.2151117e-38
0.19851349 0.14331566 2.0834985 1.0683202e-38
0.16513081 0.15980068 2.4665532 6.2646309e-39
0.13850747 0.13534924 2.0688207 6.1731541e-39
0.30798325 0.14554419 2.1110716 9.4875277e-39
-0.38395709 0.15877438 1.9425929 1.1507903e-38
-0.4788526 0.16089393 1.921827 7.9209166e-39
-0.32502648 0.1622752 1.9587871 1.0495197e-38
-0.17240238 0.16247486 1.9941154 1.0129303e-38
-0.032097429 0.15996999 2.0261054 1.2427344e-38
0.21796943 0.16551332 2.0870585 9.0233125e-39
0.086378999 0.18748835 2.0531874 1.3536221e-38
0.26701665 0.17959905 2.0974321 9.3928153e-39
0.11156704 0.18699445 2.0597355 1.2982325e-38
0.44578388 0.16853413 2.142761 8.5648427e-39
-0.89018136 0.21456829 1.9998345 1.1152828e-38
-0.79091817 0.21334563 2.0227168 1.0228342e-38
-0.87485182 0.21791625 2.0069985 8.3876808e-39
0.086429827 0.19989033 2.0528362 1.0319092e-38
0.78283054 0.21314627 2.4078963 6.3550413e-39
0.8054949 0.21727334 2.4176803 7.5553781e-39
0.81704807 0.2247448 2.4165471 1.1792779e-38
0.74620843 0.24548574 2.393595 1.1516193e-38
0.30900827 0.20694225 1.5494289 7.822226e-39
0.35136798 0.22130276 1.6715511 7.913707e-39
0.78876543 0.2861993 2.4070933 1.0318725e-38
0.6781106 0.31457776 2.3763034 1.2162291e-38
0.66467547 0.31222937 2.3740785 8.7524976e-39
0.85291529 0.30635566 2.4193342 1.0869382e-38
-0.9431085 0.3558346 1.9819773 9.308914e-39
0.12816274 0.26426214 1.632368 8.748885e-39
0.74821794 0.33475333 2.3931227 1.2437068e-38
0.72858858 0.32236981 2.389642 1.2161208e-38
-0.50968301 0.37250939 1.8964064 1.0865064e-38
-0.50397635 0.36352327 1.9026623 8.0091396e-39
-0.87587249 0.41816431 1.9683141 5.6239348e-39
-0.05786274 0.30568534 1.5862923 1.2245121e-38
-0.49366122 0.39839706 1.8819572 4.5143503e-39
0.14506352 0.31356797 1.6318663 1.2890849e-38
1.0228986 0.42203015 2.4239829 1.3858323e-39
0.7626701 0.41503105 2.3634055 1.0966981e-38
0.78409332 0.41684192 2.3668833 6.9114591e-39
0.94643402 0.42466301 2.4068186 1.9361335e-39
0.90158308 0.43475235 2.3945494 1.2349189e-38
-0.12708639 0.37653211 1.5584298 9.6657911e-39
0.31672856 0.41582277 1.6491847 8.9303812e-39
0.2654731 0.44095922 1.6361239 1.2154002e-38
0.65711212 -0.68805504 2.3955991 1.1239613e-38
0.60968399 -0.62709689 2.3821642 1.1611993e-38
-0.64761174 -0.65781313 2.091428 1.0317286e-38
-0.89240766 -0.58004868 2.0318451 1.2343796e-38
-0.12051828 -0.50708973 2.0419233 1.1688701e-38
0.79365319 -0.49716368 2.4244626 1.1426162e-38
-0.69921446 -0.53800344 2.0707233 6.9107346e-39
0.89207697 -0.4381057 2.451123 9.9510408e-39
0.039134014 -0.43437833 2.1272147 1.1873443e-38
-0.78584909 -0.39015815 2.054332 1.1887139e-38
-0.95040417 -0.41179559 2.0090597 1.0686434e-38
-0.23117873 -0.36901653 2.1141109 7.3652261e-39
0.72471279 -0.3375687 2.4096704 6.2682449e-39
0.24012691 -0.30020761 2.223506 1.1413192e-38
0.2695365 -0.2803483 2.2203126 8.194984e-39
-0.0017640459 -0.2783539 2.1099391 4.7858953e-39
0.82193434 -0.23798926 2.4249601 9.4871732e-39
-0.84263933 -0.27346194 2.0300155 9.6719316e-39
0.30964258 -0.21567279 2.2342632 1.1413911e-38
-0.7821154 -0.22040549 2.0514941 1.1424363e-38
-0.7315731 -0.21333887 2.0509071 1.0777186e-38
-0.34420037 -0.19718842 2.0771475 1.1780887e-38
0.25872955 -0.1619166 2.2192216 1.2888326e-38
0.79244161 -0.17970845 2.4217646 1.2532507e-38
0.91923249 -0.16791031 2.447432 1.0686079e-38
-0.26584062 -0.1638855 2.0961049 1.1413189e-38
0.80724192 -0.12075307 2.418792 1.2161921e-38
-0.72706342 -0.099183746 2.0506189 1.1150308e-38
-0.13128665 -0.11189927 2.0801609 1.1873086e-38
0.16560692 -0.076907948 2.149051 1.1596499e-38
-0.95148063 -0.056718316 2.0000029 1.0135785e-38
-0.11128314 -0.078170702 2.0828052 1.1412468e-38
0.35203516 -0.071365617 2.2428346 1.2426264e-38
0.42643631 -0.06643346 2.2569745 8.0977353e-39
