# .PCD v0.7 - Point Cloud Data file format
VERSION 0.7
FIELDS x y z rgb
SIZE 4 4 4 4
TYPE F F F F
COUNT 1 1 1 1
WIDTH 1034
HEIGHT 1
VIEWPOINT 0 0 0 1 0 0 0
POINTS 1034
DATA ascii
-0.81685811 -1.2525045 3.9033835 1.2251595e-38
-1.4514639 -0.99293262 3.1417704 9.672642e-39
-0.94893473 -1.1836475 3.7543581 7.1869529e-39
-0.97246337 -1.1740217 3.7263854 1.0685356e-38
-0.84815568 -1.2213994 3.8671839 1.1883542e-38
-0.79731244 -1.2393783 3.9301803 1.2436709e-38
-0.81237304 -1.2390232 3.9059069 1.1975724e-38
-0.78003103 -1.2434343 3.9558198 1.1794229e-38
-1.3004296 -1.0301535 3.3184168 1.068932e-38
-1.4685504 -0.9773075 3.1148441 1.1149217e-38
-0.92866981 -1.1825869 3.773973 5.250123e-39
-0.83284295 -1.2068443 3.8889284 1.1977897e-38
-0.91046315 -1.1886587 3.7906039 8.7496039e-39
0.77741534 -1.7893356 5.7945414 1.0500616e-38
0.81215382 -1.8103787 5.8354106 1.0780803e-38
-1.1934555 -1.0482749 3.44771 6.8170984e-39
-1.102915 -1.0811437 3.56282 1.0962658e-38
0.73474556 -1.7159091 5.7483215 1.1797481e-38
0.89722693 -1.7833041 5.9366388 8.7514172e-39
-1.0595742 -1.0756516 3.611788 7.273748e-39
-0.79756486 -1.1690899 3.9255083 1.0592432e-38
-0.7652607 -1.1803948 3.9591141 8.1949812e-39
-0.81121773 -1.1661801 3.9095843 1.1054493e-38
-0.58295345 -1.2409209 4.1895986 5.8944177e-39
0.14276591 -1.3229487 4.4928775 7.639641e-39
-0.64214176 -1.2228378 4.1124034 5.6149609e-39
-0.60320514 -1.2374687 4.1570611 1.0502766e-38
0.72332233 -1.6991627 5.7246222 1.0410231e-38
1.1434572 -1.8428626 6.2221465 7.8298364e-39
-0.95114851 -1.088858 3.7357359 1.1516194e-38
-0.80859476 -1.1392885 3.9109199 1.0226179e-38
-0.71375871 -1.1793386 4.0177197 1.2067566e-38
-0.58616054 -1.229678 4.1884837 8.1074799e-39
1.0625881 -1.7886295 6.1248121 1.1151742e-38
0.7289865 -1.6642437 5.7176151 1.1334335e-38
-1.1185699 -1.0119386 3.5318499 1.1607673e-38
-1.1369587 -1.0157118 3.5127394 1.0686076e-38
-0.91787201 -1.0855227 3.7749929 1.0869022e-38
-0.97396702 -1.0702218 3.7108896 1.0224364e-38
-0.89936781 -1.1032054 3.8057165 1.0314769e-38
-0.70313728 -1.1601474 4.0337739 7.736161e-39
-0.98511338 -1.0732642 3.6953309 9.8573878e-39
-0.65736884 -1.1752126 4.0857697 1.197501e-38
1.0120974 -1.7179933 6.0562992 1.0962672e-38
3.2349365 -3.3391206 11.733529 8.3815893e-39
-1.3684119 -0.91728604 3.2299182 5.3441376e-39
-1.3535844 -0.91816926 3.2455451 5.8969638e-39
-1.1404729 -0.98904353 3.5116739 9.6719274e-39
-0.71966678 -1.1324333 4.0131602 1.022582e-38
-1.4554944 -0.87750125 3.1311336 9.3071063e-39
-1.1763662 -0.97111136 3.459743 9.2109478e-39
-1.1529534 -0.98217046 3.4895511 9.0265551e-39
-0.73838079 -1.1114805 3.9805157 1.1794585e-38
-0.85481727 -1.0757655 3.8546231 1.0408762e-38
-1.0379049 -1.0041877 3.624038 1.2438511e-38
0.87331337 -1.6318069 5.9052763 1.0508536e-38
0.88663471 -1.645155 5.9067898 7.001861e-39
0.95055389 -1.6670901 5.9857969 1.1424735e-38
3.4669251 -3.24805 11.863003 1.5308859e-38
3.751044 -3.2994578 12.087736 9.029823e-39
-1.3471718 -0.90336078 3.2564063 3.9594094e-39
-1.1138844 -0.96938223 3.5400245 8.9321959e-39
-1.0090019 -1.0026501 3.6602254 1.1330365e-38
-0.98186606 -1.0114465 3.7001324 1.0683906e-38
-0.8441388 -1.056581 3.8644364 1.1239243e-38
-0.80642474 -1.0783492 3.9037399 1.0039621e-38
-0.80454677 -1.0634105 3.9069488 9.3027805e-39
-0.81191641 -1.0669296 3.8982325 1.1792777e-38
-0.72702485 -1.1021295 3.9927394 1.1241405e-38
-0.71485835 -1.0923433 4.0148139 1.1424359e-38
0.90726376 -1.6190341 5.9364357 8.6592258e-39
0.96992445 -1.6234727 6.0075598 1.2532155e-38
1.1539757 -1.6846098 6.2134171 1.1052705e-38
3.3078716 -3.1720448 11.780996 1.6969821e-38
-1.3513552 -0.88360626 3.2506962 9.7695376e-39
-1.2464174 -0.91112065 3.373163 8.5695301e-39
-1.2658293 -0.90624243 3.3567848 9.1223479e-39
-1.0139196 -0.98288363 3.6548898 1.0315129e-38
-1.0385951 -0.97951931 3.6268392 8.7492466e-39
-0.96410859 -1.0083535 3.7210231 9.3974901e-39
0.9851805 -1.5972086 6.0228376 1.2165898e-38
1.1177391 -1.6422925 6.1700869 1.3177526e-38
2.2043722 -2.9221716 11.056403 1.1250456e-38
2.9422724 -3.0771081 11.541401 1.5954226e-38
3.5495436 -3.1877067 11.929539 1.5218113e-38
-1.3955793 -0.84930885 3.1959825 9.6755315e-39
-1.2321147 -0.90527105 3.4051607 5.2494112e-39
-1.2066835 -0.91447657 3.4262526 7.5553753e-39
-0.81824732 -1.0241642 3.8948224 1.1976457e-38
-1.0107157 -0.96247447 3.6595559 9.0251104e-39
-0.87950885 -1.0042427 3.8140538 1.0777922e-38
-0.91180074 -1.0034385 3.7889109 6.4472327e-39
0.76645982 -1.5239615 5.7633018 1.3178611e-38
0.98208821 -1.5716455 6.0192447 1.299458e-38
1.0287385 -1.6066548 6.0782118 8.472315e-39
2.8989677 -3.0059066 11.471917 1.208057e-38
-1.1478313 -0.90699387 3.5043681 9.8577577e-39
-1.1014551 -0.93201059 3.5510027 1.1423272e-38
-1.2013401 -0.89791197 3.4426649 8.8457708e-39
-1.0839367 -0.92738575 3.5711069 9.3013386e-39
-1.0037917 -0.94940823 3.6682012 9.3931741e-39
-0.99086785 -0.9668504 3.683161 9.3013414e-39
-0.91119874 -0.97674823 3.785346 7.4610245e-39
-0.78984398 -1.0261548 3.9294095 5.5245519e-39
-0.88673902 -0.98914391 3.802973 1.1793507e-38
-0.75730538 -1.0276402 3.9626143 8.2882614e-39
-0.66230744 -1.055632 4.0751071 9.4896955e-39
1.0978121 -1.5969666 6.1520462 9.2095171e-39
4.0594001 -3.123806 12.273374 1.0970983e-38
3.4978082 -3.0841596 11.919063 1.5032277e-38
-1.4119107 -0.81726152 3.1764381 7.3709995e-39
-1.1755354 -0.89004076 3.4653502 8.8457862e-39
-1.172271 -0.88633007 3.4761617 1.0966993e-38
-0.95036668 -0.96025801 3.7284906 1.1149214e-38
-0.88045436 -0.96959352 3.8055184 1.123853e-38
-0.95729476 -0.94993454 3.7205067 8.105668e-39
-0.77383161 -1.0080154 3.9444239 7.8290938e-39
-0.85761762 -0.98091674 3.8390977 7.9176838e-39
2.2062318 -2.7726789 11.052095 1.6873657e-38
2.9376359 -2.8979914 11.547706 1.5401774e-38
3.383569 -2.989017 11.815218 9.7778403e-39
4.0053034 -3.0799658 12.24854 1.1156082e-38
4.0872278 -3.0807769 12.282688 1.4284252e-38
-1.1994882 -0.85513461 3.4303873 1.0133985e-38
-1.1473956 -0.88082999 3.5081053 1.1149947e-38
-1.0809307 -0.89912206 3.5856032 1.0040703e-38
-0.99116105 -0.92568308 3.683043 1.1236722e-38
-1.047603 -0.90495104 3.6188843 9.9481429e-39
-0.98373187 -0.92852378 3.6967499 8.564491e-39
-0.8321529 -0.9759351 3.8738546 9.7605174e-39
-0.83077383 -0.96468478 3.8712788 1.1791342e-38
-0.70739162 -1.0127362 4.0155306 8.8403632e-39
-0.67856574 -1.0239799 4.0600934 7.920202e-39
1.0815502 -1.5182104 6.124001 1.151549e-38
2.6955075 -2.8207922 11.365918 1.0786956e-38
2.3978915 -2.7867808 11.182876 1.7892131e-38
3.4959526 -2.9671934 11.898207 1.7616627e-38
-1.0214562 -0.89341378 3.662611 1.0691483e-38
-0.90288371 -0.92905998 3.7926424 9.5793646e-39
-0.96478492 -0.92282104 3.7161224 1.031873e-38
-0.81029934 -0.95055169 3.8901536 9.9459933e-39
-0.087157026 -1.0410649 4.2135029 9.3888426e-39
0.56762433 -1.3433663 5.5358624 7.7358261e-39
0.62882274 -1.3823253 5.6014538 1.1329288e-38
0.83763695 -1.4318129 5.8357906 1.2717634e-38
0.72496873 -1.395231 5.7069235 8.658144e-39
2.6933396 -2.7840123 11.375646 1.1341205e-38
3.3541279 -2.8583024 11.831093 1.6600677e-38
-0.96935546 -0.89753407 3.7161958 5.5278015e-39
-0.98474121 -0.89411652 3.7051389 1.013687e-38
-0.93700135 -0.90353012 3.739476 9.4907675e-39
-0.87514389 -0.91606128 3.8227403 1.0686078e-38
-0.84211308 -0.9309541 3.8548205 1.1515118e-38
-0.6876626 -0.97139716 4.0379906 8.0113158e-39
0.0085480018 -1.0491972 4.322053 8.1960672e-39
0.81776601 -1.3879075 5.8138518 1.2992774e-38
0.99608588 -1.4299031 6.0200095 1.0319462e-38
1.0591582 -1.4596746 6.1071916 9.8552466e-39
2.7198396 -2.7203512 11.36627 1.4386532e-38
3.4016767 -2.8292043 11.841176 1.2358956e-38
-1.1669052 -0.82870531 3.4632723 1.0504212e-38
-1.1537579 -0.83112788 3.4841352 8.9354469e-39
-0.86673248 -0.91438901 3.8262007 9.1162242e-39
-0.8528474 -0.90600127 3.8479328 1.0593878e-38
0.55494678 -1.2938221 5.4980512 1.1147064e-38
0.79501504 -1.3468697 5.7878146 9.1187648e-39
0.76597089 -1.3621882 5.7612724 1.2070823e-38
0.73603767 -1.3526678 5.7193522 9.1191165e-39
1.1381224 -1.4519264 6.2056599 1.1335057e-38
2.6041205 -2.6524074 11.290264 1.4294702e-38
3.5029674 -2.7727888 11.905623 1.051614e-38
-1.4364175 -0.72559148 3.1439483 8.2889929e-39
-1.1241896 -0.82198727 3.5233414 1.0870465e-38
-0.90281099 -0.88464057 3.7929554 9.5869442e-39
-0.85909784 -0.88737804 3.8413665 1.0408035e-38
-0.83270216 -0.90134913 3.8716409 1.0408765e-38
0.72637635 -1.3007199 5.6937637 1.3087133e-38
0.94848323 -1.3843404 5.9568262 1.1514755e-38
-1.1522578 -0.79177433 3.4841409 7.8294469e-39
-1.1409088 -0.80158782 3.4991264 9.8552424e-39
-0.82510912 -0.88769579 3.8787768 1.0864689e-38
-0.78019559 -0.88866895 3.9291582 1.0411286e-38
-0.78866732 -0.8907972 3.9220908 9.2988078e-39
0.7380445 -1.2982396 5.7129383 1.3086775e-38
0.8870542 -1.3350961 5.8816614 1.2255206e-38
3.0162349 -2.5921955 11.546338 1.3556781e-38
3.4104187 -2.6821616 11.847169 1.5858415e-38
3.5471885 -2.6978722 11.899248 1.641917e-38
3.6115015 -2.7189705 12.002983 1.66014e-38
-1.2661111 -0.74532169 3.3504629 1.0597848e-38
-1.4418577 -0.70932621 3.1399267 8.3826389e-39
-1.1885939 -0.77157646 3.4457324 8.2907936e-39
-1.100558 -0.79667222 3.5534687 8.9336392e-39
-1.0100867 -0.81947541 3.6503372 9.3031448e-39
-0.78386807 -0.87524545 3.9325609 5.8032982e-39
-0.34643507 -0.91037941 4.0563054 5.3383614e-39
-0.70458359 -0.88528967 4.0155568 9.6719175e-39
0.58201063 -1.2188989 5.548039 1.2715828e-38
0.66319054 -1.2491773 5.6327171 9.9485114e-39
3.2773144 -2.5743454 11.775258 1.6129228e-38
3.2905257 -2.5842967 11.74849 9.2098814e-39
3.7043636 -2.6557043 12.03551 1.6320109e-38
3.7742538 -2.6839125 12.095405 1.4941523e-38
-1.454038 -0.68914121 3.1290793 8.7514144e-39
-1.0869453 -0.78358382 3.564106 8.2886314e-39
-1.0059849 -0.80083758 3.6564436 1.0503847e-38
-0.79947972 -0.84293443 3.8993618 1.0038905e-38
-0.9655205 -0.80265111 3.7041993 9.118385e-39
-0.70391315 -0.86926371 4.0227709 4.973176e-39
0.045571193 -0.98531777 4.5170693 6.3514371e-39
-0.33191976 -0.90886533 4.1378756 8.09918e-39
0.83439624 -1.2556136 5.8236241 8.476261e-39
0.97458887 -1.2856128 5.9927564 1.2348127e-38
0.86810076 -1.26482 5.8739247 1.1885707e-38
2.7181125 -2.4440484 11.351499 1.4201782e-38
3.4683585 -2.5460796 11.921868 4.1420295e-39
-1.4220738 -0.67186105 3.1631532 1.1703108e-38
3.4154406 -2.5190496 11.921081 5.9970852e-39
3.7086976 -2.5657551 12.059146 1.6319743e-38
3.4786158 -2.5091827 11.964033 6.4526866e-39
3.8914731 -2.5536871 12.151547 1.4938631e-38
-1.2665253 -0.6934365 3.3419952 9.2102303e-39
-1.0018163 -0.76376277 3.6689801 9.2095003e-39
3.9702399 -2.5021625 12.207327 5.5278001e-39
-1.062699 -0.74142361 3.6017053 1.1425444e-38
0.79348135 -1.1629987 5.7704616 1.1150663e-38
1.113065 -1.2507975 6.1596518 1.2349205e-38
2.9478121 -2.3449092 11.505163 1.6230454e-38
3.6095655 -2.448854 12.039325 4.8003511e-39
3.39587 -2.4056818 11.92253 1.5772347e-38
3.9619071 -2.4749663 12.220441 1.3367666e-38
4.0334697 -2.4531765 12.255443 8.3894898e-39
-1.3745468 -0.64543664 3.2140534 1.151657e-38
-1.1166779 -0.71078241 3.5205727 9.5779269e-39
-1.0518813 -0.72093797 3.5968475 9.4853669e-39
-0.93836594 -0.74641991 3.7351425 9.8548655e-39
-0.93388665 -0.74059117 3.7438478 7.4585022e-39
4.0305204 -2.4025748 12.252 7.6490311e-39
-1.3686129 -0.63602966 3.2177012 1.0504213e-38
-1.1955231 -0.67338979 3.4297526 9.8563312e-39
-1.1627618 -0.68287945 3.4662395 1.0593512e-38
-0.9501732 -0.72939664 3.7249169 1.1793143e-38
-0.87253058 -0.74833137 3.810111 1.0686071e-38
-0.92421001 -0.73409665 3.750047 1.1976814e-38
-0.84761852 -0.74475974 3.8491311 7.3706351e-39
-0.80649596 -0.75140381 3.8827479 1.1514391e-38
0.15997669 -0.89868689 4.6416698 1.141427e-38
0.8274408 -1.1353117 5.8109779 7.2770046e-39
0.91533422 -1.1557473 5.9132714 1.1978976e-38
1.0254816 -1.1568055 6.0439005 1.1979698e-38
-1.4271278 -0.59920746 3.1430068 9.9503107e-39
-1.1446532 -0.65780079 3.4866076 1.0868663e-38
-1.1891489 -0.64609826 3.4245057 1.0224025e-38
-1.2542096 -0.63405842 3.3546276 8.2911607e-39
2.3025367 -2.0762305 11.121666 1.3916186e-38
2.6411428 -2.1165326 11.325185 1.3090754e-38
4.1259885 -2.3272498 12.295868 1.0132531e-38
-0.9646666 -0.69264686 3.6940987 9.5782926e-39
-0.78744423 -0.7246111 3.9121363 6.2610296e-39
-0.92922604 -0.68950182 3.7401791 1.1423637e-38
-0.92679429 -0.69797039 3.7381771 1.0040343e-38
0.081447802 -0.8336795 4.5453796 1.1783771e-38
0.061123312 -0.83785605 4.5421238 9.3006211e-39
1.2277775 -1.1427971 6.2687225 1.2159774e-38
4.0288043 -2.253962 12.223276 1.0509631e-38
-1.415307 -0.57952923 3.1738203 1.0599291e-38
-1.3849823 -0.57348341 3.2022064 8.8446918e-39
-1.3800279 -0.58017313 3.213269 1.1153544e-38
-0.90322423 -0.67530185 3.7694952 1.1975729e-38
1.1356685 -1.1085464 6.176652 7.7369037e-39
1.2124543 -1.136664 6.2610478 1.4096963e-38
-1.3333991 -0.5709641 3.263073 1.2071177e-38
-1.1737773 -0.60637522 3.4565246 1.068897e-38
-1.0619603 -0.63883966 3.5829003 1.133108e-38
-0.76279002 -0.69115168 3.9365778 1.2251956e-38
1.1825075 -1.0945855 6.2192965 1.2166258e-38
2.9471741 -2.0192573 11.514786 1.6414124e-38
-1.4322145 -0.53361988 3.1350334 1.0964468e-38
-1.271956 -0.57401401 3.3361139 8.473387e-39
-1.1123784 -0.60081393 3.52633 9.7619426e-39
-1.050464 -0.61916554 3.5951712 9.4850039e-39
-0.82717162 -0.65902406 3.8566787 9.9463464e-39
-0.6100468 -0.70587975 4.1271996 7.4639014e-39
-0.604294 -0.71472895 4.1313148 4.7869869e-39
3.5421145 -2.0364571 11.998872 1.7432586e-38
-1.3091158 -0.54973757 3.2864866 8.9365343e-39
-1.2865815 -0.55971014 3.327395 4.7895162e-39
-1.1494111 -0.59133816 3.4956071 9.8628038e-39
-1.0672567 -0.59693646 3.5780454 9.6704644e-39
-1.0902121 -0.59003931 3.5685945 3.5009242e-39
-0.84613562 -0.64625841 3.8354359 9.3031448e-39
0.73589975 -0.94573814 5.690248 1.2625793e-38
0.81382734 -0.95480746 5.7779942 1.2533593e-38
0.92997718 -0.97994447 5.9289818 7.0022226e-39
0.91147614 -0.98478806 5.9201841 1.2164088e-38
-1.4286524 -0.50910437 3.1456676 1.1149217e-38
-1.446421 -0.50880396 3.1242356 9.120557e-39
-1.3603206 -0.52093476 3.225487 1.1241775e-38
-1.1795813 -0.55235142 3.4362488 9.580452e-39
-1.1357106 -0.55892938 3.490725 9.3953391e-39
-1.0895678 -0.57718295 3.5631282 1.0964111e-38
-1.0480593 -0.59119689 3.6050508 4.6962318e-39
-0.9620145 -0.59750068 3.7117093 1.1055222e-38
-1.0053411 -0.59697998 3.6534429 1.142147e-38
-0.77811223 -0.63899922 3.9247363 1.2437076e-38
-0.30882639 -0.68278921 4.2150607 8.1949812e-39
0.93414181 -0.9584806 5.9306264 7.0940539e-39
1.1329795 -0.9809891 6.1534348 9.1183948e-39
-1.3770725 -0.51167899 3.2084715 7.922004e-39
-1.3850994 -0.51087332 3.1975973 8.4769785e-39
-1.3214531 -0.52138436 3.2750998 8.8421653e-39
-1.0026932 -0.5825333 3.658061 1.1055578e-38
-0.88983041 -0.59188986 3.7830245 8.4719296e-39
-0.80187213 -0.60791272 3.8829577 9.8519858e-39
-0.28363448 -0.66595554 4.2183423 8.1006178e-39
-0.29601601 -0.66554666 4.219183 5.4280221e-39
1.071925 -0.94410682 6.0834546 1.0225464e-38
1.1890821 -0.96033466 6.2225246 1.2623988e-38
-1.3604314 -0.4987947 3.2218552 8.9372476e-39
-1.2302078 -0.52363425 3.3751094 9.4860886e-39
-0.92921054 -0.57636023 3.7378781 1.2531787e-38
-0.81770325 -0.59098542 3.8649948 8.932549e-39
-0.75502992 -0.59562445 3.9426515 1.012966e-38
-0.74893731 -0.59701538 3.9379625 1.0498438e-38
-0.73944151 -0.5949502 3.9527442 1.1514028e-38
0.19598433 -0.70563507 4.6782703 5.7046174e-39
-1.224462 -0.50349385 3.3821614 9.6708484e-39
-1.0959142 -0.51863045 3.5328045 1.1055939e-38
-0.81204879 -0.57928997 3.8854694 6.3539623e-39
-0.85197419 -0.56851017 3.8444827 9.9532114e-39
-0.77639836 -0.58860308 3.9220951 6.3557587e-39
-0.72384286 -0.58262539 3.9807212 1.0409122e-38
0.78771287 -0.84263074 5.7629261 1.1977899e-38
-0.0042212363 -0.6503346 4.4443674 1.0311516e-38
1.0485994 -0.89442515 6.0578151 8.4733842e-39
2.6904216 -1.6378312 11.345654 1.4107788e-38
3.0562503 -1.7171904 11.582709 1.6600316e-38
3.2877972 -1.7202979 11.760573 1.6317947e-38
-1.398765 -0.4583579 3.1818268 1.0412011e-38
-1.2945539 -0.47685513 3.299227 9.4886151e-39
-1.0515436 -0.5102036 3.5854886 1.1976811e-38
-0.96499503 -0.52434045 3.6901019 7.7361624e-39
-0.91303939 -0.53830922 3.750174 9.4853697e-39
-0.087534845 -0.60698253 4.3124819 1.1693382e-38
0.64613533 -0.79707849 5.5972071 1.2076225e-38
0.67373174 -0.80203515 5.6326275 1.0874076e-38
0.66360843 -0.81024557 5.6150427 7.7372583e-39
0.73916024 -0.80769724 5.6888337 1.1146689e-38
0.81844002 -0.81342429 5.79141 1.1423274e-38
0.98727542 -0.84565336 5.987812 1.326864e-38
-1.3033227 -0.46405569 3.2897511 9.0287187e-39
-1.2806668 -0.46400502 3.3177359 4.8849601e-39
-1.0158341 -0.49952832 3.6261516 9.6708329e-39
-0.95904857 -0.51421708 3.7011075 9.5771996e-39
-0.95032334 -0.50636601 3.7078161 1.1701659e-38
-0.86282307 -0.53425997 3.8137691 1.1424002e-38
0.74000186 -0.79649037 5.7024312 6.8160222e-39
2.635741 -1.5734414 11.265516 1.2448988e-38
0.97947228 -0.81663638 5.9871745 1.299133e-38
-1.3983768 -0.43292329 3.1821334 6.6323484e-39
-1.3385583 -0.43648556 3.2456532 1.1240689e-38
-1.3618627 -0.42793536 3.2248249 8.9375993e-39
-1.367029 -0.43910378 3.2172861 1.1058109e-38
-1.4073572 -0.42843804 3.1720753 8.1074799e-39
-1.0744013 -0.47321451 3.5705986 9.8620836e-39
-1.2593726 -0.45125741 3.3377178 7.2773647e-39
-0.75871235 -0.53436023 3.9262106 9.3931713e-39
0.90322125 -0.77831835 5.8981452 1.1338287e-38
0.80240309 -0.77171332 5.7674913 1.1149225e-38
1.0587355 -0.81707746 6.0672932 1.2069731e-38
2.4366937 -1.4598762 11.139437 1.7153848e-38
-1.1981302 -0.44305465 3.4077203 8.6584859e-39
-1.0682145 -0.45736086 3.5758126 4.4228903e-39
1.0275525 -0.78576571 6.0317979 7.4599525e-39
0.40128314 -0.64685333 5.055861 8.7499626e-39
2.980408 -1.4606241 11.507415 1.2816335e-38
3.9489717 -1.5444171 12.152593 1.4749905e-38
4.0482025 -1.583021 12.254745 1.0878054e-38
-1.3079804 -0.40581813 3.2769623 9.0265607e-39
-1.1933504 -0.43590578 3.4307494 7.5524943e-39
-1.1992842 -0.42010194 3.4253688 4.4218029e-39
-1.1487736 -0.43567234 3.4685612 9.5826044e-39
-1.1315672 -0.44206947 3.4963136 1.0227616e-38
-1.0732514 -0.44740161 3.5720203 4.0555441e-39
-0.85543388 -0.46855846 3.8136787 1.1236359e-38
0.77853239 -0.71752858 5.7354984 9.9481569e-39
3.2258267 -1.4264072 11.680275 1.7155291e-38
-1.3189627 -0.38855502 3.2674024 1.0595312e-38
-1.1142529 -0.427625 3.5279367 5.8947792e-39
-1.1194947 -0.42104763 3.5219297 9.3071021e-39
-0.8651675 -0.45053446 3.8079214 9.7673614e-39
-0.92695028 -0.45581454 3.7320831 9.9456248e-39
-0.92966223 -0.44672284 3.7278001 1.2252319e-38
2.6901019 -1.33895 11.343089 1.5491813e-38
-1.4182184 -0.36481151 3.1535766 1.1242138e-38
-1.2327161 -0.39185497 3.3668084 1.1516194e-38
-1.1412981 -0.40132123 3.4790123 8.1978791e-39
-1.118282 -0.39708236 3.497071 8.289709e-39
-0.90880883 -0.42465627 3.7508831 8.3808228e-39
2.6160774 -1.3041217 11.259729 1.8162552e-38
2.9593997 -1.3399304 11.512959 1.6231895e-38
-1.3337933 -0.3584215 3.2502079 9.6733553e-39
-1.1137404 -0.39334068 3.5094795 1.0965535e-38
-1.1901039 -0.37292111 3.4328251 5.5292365e-39
-1.1075848 -0.38416547 3.5173936 1.0686791e-38
0.83930182 -0.63230562 5.8099871 1.1335417e-38
2.6219552 -1.2448235 11.25296 1.8162546e-38
3.7657506 -1.3480998 12.046143 1.5676559e-38
3.7438729 -1.3482405 12.060739 1.4293627e-38
3.5793104 -1.3104196 11.948063 1.6415927e-38
-1.2987562 -0.34910658 3.3000174 6.1710031e-39
-1.2358764 -0.35587621 3.3682718 1.0132903e-38
0.88139272 -0.62758011 5.8540902 1.1426168e-38
0.94678473 -0.6209712 5.9348955 1.1887141e-38
1.0095023 -0.63727313 5.9857664 1.1884977e-38
2.6803935 -1.1715699 11.275887 1.6693592e-38
2.6942027 -1.213706 11.284608 1.7793408e-38
3.6970406 -1.2778727 11.988879 1.6507042e-38
2.6575851 -1.2099309 11.316296 1.8070715e-38
2.9884853 -1.1893933 11.52406 1.4654786e-38
-1.303703 -0.3378188 3.2910855 8.6592216e-39
-1.0405902 -0.36118624 3.595118 9.3027833e-39
-1.0082846 -0.36103919 3.6296151 8.7492438e-39
1.2043351 -0.63916951 6.2213731 1.0315859e-38
3.5275865 -1.2097915 11.844877 1.3923397e-38
4.0246964 -1.1938603 11.980445 1.640112e-38
3.6040063 -1.2224839 11.928303 1.6876544e-38
-1.3729941 -0.30941871 3.2037828 1.0043225e-38
-0.96322846 -0.35583022 3.6799085 8.0127521e-39
0.53225946 -0.48949468 5.190383 8.3764914e-39
0.28680459 -0.46606117 4.7343707 9.57395e-39
1.0816202 -0.59193075 6.0786662 9.3938999e-39
4.0076742 -1.1770877 11.997356 1.3447255e-38
-1.1654598 -0.31773534 3.4404392 1.1700944e-38
-1.2075447 -0.30894735 3.3935237 9.7648404e-39
-1.1657639 -0.30989939 3.4402597 1.0041069e-38
-1.0076523 -0.33286408 3.6374698 1.1335773e-38
-0.99190521 -0.33594662 3.650548 6.3543084e-39
-0.9430508 -0.34485599 3.7001889 1.0500601e-38
-0.95352632 -0.33961156 3.6950202 9.4871633e-39
-0.55460423 -0.33827579 3.6335824 8.7398705e-39
0.57138461 -0.47941262 5.2064214 5.9797581e-39
4.0405917 -1.087144 11.938146 1.3450485e-38
-1.1597151 -0.30753934 3.4476519 1.1700944e-38
-1.1141284 -0.3141551 3.5073879 1.0687155e-38
-1.0827442 -0.31433833 3.5466664 5.89694e-39
-1.0638851 -0.3133007 3.5611422 9.5790087e-39
-1.0067706 -0.31273577 3.6353533 1.0039984e-38
-1.0310227 -0.31083891 3.6071215 1.1147412e-38
-0.12264598 -0.37613061 4.2948556 6.9031648e-39
-0.086731859 -0.38571569 4.3446851 4.1398084e-39
0.097568884 -0.38157511 4.4872317 1.6129887e-38
0.11505885 -0.38781011 4.5222282 1.9819514e-38
0.28018767 -0.41224554 4.7409673 1.049988e-38
0.53632033 -0.44482866 5.202579 5.2440022e-39
1.0812502 -0.52482253 6.0756664 1.0317295e-38
0.83575916 -0.51031572 5.811018 1.1978619e-38
-1.456686 -0.25122374 3.0966513 9.489341e-39
-1.462365 -0.25452727 3.0892015 1.1886782e-38
-1.0687705 -0.29347405 3.5527706 7.0907972e-39
-0.95800614 -0.29996791 3.6924365 8.1056694e-39
0.96305346 -0.48511726 5.9407125 8.1042401e-39
3.3374786 -0.97972679 11.771323 1.4940794e-38
3.8433778 -1.0126318 12.092581 6.2624827e-39
-1.3405237 -0.2538783 3.2372108 1.0964824e-38
-1.3546716 -0.25585571 3.2201934 9.1191193e-39
-1.2517622 -0.25359711 3.3402071 1.077935e-38
-0.94306451 -0.29065186 3.6992011 1.0594235e-38
-1.0751984 -0.27483645 3.5538328 9.398946e-39
0.55040181 -0.41622543 5.208683 9.9405773e-39
2.3037078 -0.85524797 11.015811 1.6323373e-38
0.93860638 -0.45801666 5.9036603 8.198242e-39
3.204968 -0.89369893 11.668241 1.4756037e-38
3.2390649 -0.90656149 11.673848 9.775325e-39
3.3644242 -0.93334311 11.756568 1.660104e-38
3.4949548 -0.90701777 11.854065 1.5679082e-38
3.5666001 -0.89691931 11.904433 1.1805067e-38
3.8811278 -0.95445526 12.089519 3.1328662e-39
3.9141903 -0.95790339 12.071967 1.0968721e-38
3.9282217 -0.91248542 12.069416 9.2166455e-39
-1.3261446 -0.23600771 3.2552977 7.1865942e-39
-1.2900177 -0.24241787 3.2946961 8.0145598e-39
-1.2375302 -0.24418424 3.3575411 1.004359e-38
-1.1652439 -0.25220472 3.4419501 8.5670175e-39
-0.94622958 -0.27314875 3.693732 9.2112981e-39
3.2357545 -0.8703512 11.673631 9.6834825e-39
3.1522036 -0.84333712 11.564438 1.328091e-38
4.0042572 -0.85302222 12.023513 8.660606e-39
-1.2135704 -0.23093916 3.390368 9.949945e-39
-1.19222 -0.23921494 3.4146307 8.0149199e-39
-1.13256 -0.24756929 3.4808352 6.6316282e-39
-1.05086 -0.24297363 3.5828333 9.0294376e-39
-1.0550965 -0.24960658 3.5763583 7.1840789e-39
0.068665199 -0.31118354 4.4770317 8.0087486e-39
0.093130797 -0.30752614 4.4622893 1.0131769e-38
0.061663669 -0.31637257 4.4811516 8.8410246e-39
0.40463895 -0.34127197 5.0675707 5.4280347e-39
-1.3300006 -0.20730253 3.2516193 1.0965551e-38
-1.1902325 -0.21484455 3.4130874 1.0044311e-38
-1.1674603 -0.22801231 3.4418335 9.3978474e-39
-1.2111713 -0.21627377 3.3953216 1.0320901e-38
-1.2331364 -0.22184792 3.3661902 1.0319099e-38
-1.1339861 -0.22947386 3.5016799 4.697315e-39
-1.0267429 -0.22926089 3.6170869 5.987335e-39
-0.9309212 -0.24627143 3.7171853 7.5532061e-39
-0.10811909 -0.28352022 4.3067927 1.0953649e-38
0.038688798 -0.29253134 4.4710517 1.0499111e-38
0.065498009 -0.28431073 4.4861193 6.5354262e-39
1.0179795 -0.39321059 5.9830327 1.0500966e-38
4.0129809 -0.77579254 12.038905 1.1337156e-38
3.4076564 -0.76663107 11.795007 1.3280915e-38
3.9833724 -0.77575219 12.102913 8.4794546e-39
-1.3645381 -0.18503518 3.2031474 1.1331802e-38
0.022337966 -0.25822377 4.4698892 9.6711398e-39
0.011338234 -0.26216173 4.4705119 7.0878783e-39
0.54517913 -0.3162719 5.2056618 5.9797665e-39
0.53754586 -0.30664203 5.2045951 8.6552447e-39
1.0715603 -0.36305478 6.0447526 1.2347761e-38
1.4901358 -0.3887521 6.2636023 1.078911e-38
3.2245643 -0.68745977 11.65114 1.586455e-38
3.2332802 -0.71437395 11.655731 1.6416646e-38
3.4643753 -0.6823799 11.825374 1.5026122e-38
3.5285079 -0.6804533 11.852065 1.4104173e-38
-1.4370202 -0.17543565 3.1187298 8.1989595e-39
-1.2659216 -0.18753077 3.3170426 1.0504922e-38
-1.1471462 -0.19241849 3.4578485 1.1426162e-38
-1.1161742 -0.19135612 3.4952893 7.4617546e-39
0.039788682 -0.24751431 4.4819398 7.3651883e-39
0.53957558 -0.28656155 5.2066503 8.7467172e-39
3.0402548 -0.61789674 11.525762 1.4386176e-38
3.9162574 -0.66540468 12.093118 7.0983769e-39
-1.328981 -0.15669186 3.2455084 8.7521234e-39
-1.2415272 -0.16540101 3.3517118 9.7702523e-39
-1.2096161 -0.17101279 3.3759632 7.3688359e-39
-1.1283218 -0.17329878 3.4855313 9.0283544e-39
0.38794678 -0.26078656 5.0364814 6.0734083e-39
1.1635885 -0.31924531 6.1515274 1.1703109e-38
3.2921741 -0.5788818 11.711029 1.5023602e-38
3.9556615 -0.58941048 12.097535 5.8072667e-39
-1.2905462 -0.14400172 3.2859092 1.1056294e-38
-1.2203333 -0.15454932 3.3710721 6.3553986e-39
-1.2270894 -0.16095914 3.3652811 8.5677336e-39
-1.3098383 -0.15497756 3.2667115 8.381899e-39
-0.097535595 -0.19073096 4.3174443 1.0676347e-38
-0.29388073 -0.18800725 4.2551627 4.6007908e-39
0.056836005 -0.19752546 4.5141497 9.6704126e-39
0.064106144 -0.20527153 4.5179329 7.2726241e-39
3.2301416 -0.50944936 11.658317 1.5771998e-38
-1.0970154 -0.15048383 3.5268812 3.1317802e-39
-0.42997512 -0.16405174 4.0693645 1.067562e-38
1.1474565 -0.25107384 6.1280684 1.1796025e-38
3.8693428 -0.49413967 12.067815 1.0603618e-38
-1.2703207 -0.12421439 3.3112969 8.6581258e-39
0.039318167 -0.16416064 4.5267324 7.087521e-39
0.030877855 -0.15558268 4.528604 8.6559061e-39
-0.42926797 -0.1527856 4.0674481 9.201206e-39
3.802006 -0.44439158 12.041237 1.3926995e-38
-1.1636037 -0.10438983 3.4343019 1.1886412e-38
-1.1705437 -0.10357977 3.4234796 1.0686069e-38
-0.3452875 -0.12329888 4.0882249 1.1046202e-38
-0.33649877 -0.12213355 4.0974479 7.5424105e-39
-0.14777765 -0.13973488 4.2592955 7.2658264e-39
0.97979748 -0.17912956 5.9410095 1.2808375e-38
3.23983 -0.34466535 11.66526 1.6325168e-38
-1.3264132 -0.086061522 3.243099 8.5684693e-39
-1.2640985 -0.091802388 3.314167 9.0279901e-39
-0.37354884 -0.11066786 4.0607753 1.0861087e-38
0.074305713 -0.13146617 4.5457702 1.4007937e-38
2.6599741 -0.31776583 11.237973 1.0421045e-38
3.8049951 -0.30055353 12.015622 8.112554e-39
-1.0228671 -0.078153506 3.6042254 1.003925e-38
-0.095311105 -0.090081982 4.3104706 1.1691943e-38
0.20242174 -0.088613957 4.4594355 1.5763645e-38
0.33507669 -0.10899156 4.8208981 1.0951857e-38
0.59920329 -0.11981571 5.2626395 6.0712321e-39
0.80667579 -0.11656979 5.386868 5.428755e-39
1.1743377 -0.13957068 6.1517568 1.2256287e-38
2.3316829 -0.226255 11.081256 1.1335784e-38
3.1775289 -0.27960891 11.58217 1.6233331e-38
3.801024 -0.25338116 12.012564 1.1802539e-38
-1.2517905 -0.058813024 3.3360174 9.0287215e-39
-1.2456566 -0.059675511 3.3511167 1.1425437e-38
-0.36913645 -0.077937797 4.075057 5.7964431e-39
0.47435769 -0.081729263 5.0360999 9.9412934e-39
0.45909613 -0.094976023 5.0273709 7.9129895e-39
0.45066345 -0.085708752 5.0236807 9.1126103e-39
0.43976086 -0.092749186 5.0219207 7.6364054e-39
-1.3337153 -0.039745338 3.2395728 7.7379729e-39
-1.0947076 -0.045301698 3.5130029 8.5691601e-39
-1.2306331 -0.042426638 3.3617692 5.5267057e-39
-0.97438276 -0.039071955 3.6499548 1.0133972e-38
0.084829092 -0.055386141 4.4577956 1.31789e-38
0.20162418 -0.046648338 4.4261961 1.0597809e-38
2.4559722 -0.16913748 11.115635 1.7061291e-38
3.1732831 -0.13743487 11.603715 1.0234851e-38
3.1274781 -0.13421175 11.59609 1.0236658e-38
-1.339305 -0.033299599 3.2355783 1.0872626e-38
-1.3276041 -0.033592004 3.2513995 9.1216248e-39
-1.2762363 -0.02881204 3.3162203 7.5543089e-39
-1.2626539 -0.031810094 3.3221512 1.0135065e-38
-1.2011232 -0.025477558 3.391031 5.0660863e-39
-1.0207055 -0.031582464 3.6062253 5.5267113e-39
-0.93735182 -0.029768432 3.705492 5.8947764e-39
-0.97702962 -0.023078946 3.6659057 6.819248e-39
0.18570331 -0.046730042 4.4327765 8.5705936e-39
0.22589432 -0.042320155 4.4331617 1.6778507e-38
0.92475271 -0.038998336 5.8621564 9.2109436e-39
1.0537549 -0.041932095 6.0145621 1.0133268e-38
2.7275341 -0.11225431 11.25738 1.7063093e-38
3.8214526 -0.074688062 12.062474 1.1803259e-38
-1.3101494 -0.0079242457 3.2650714 9.8588297e-39
-0.99877644 -0.010748892 3.6331038 8.1989595e-39
0.19322628 -0.005497464 4.3771071 1.078111e-38
0.1879584 -0.015510187 4.4907947 2.6711579e-39
0.016622979 -0.0098961545 4.4729052 1.3087447e-38
0.68239784 -0.023917465 5.3592081 7.1822712e-39
0.91267133 -0.02964817 5.8557587 1.1884618e-38
1.1482515 -0.029424399 6.1177387 9.4886207e-39
-1.3086195 0.0093154823 3.2592227 9.5840533e-39
-1.3462272 0.009141231 3.2134385 9.9488646e-39
-1.0442854 0.0060564075 3.5656784 9.1205416e-39
-1.282125 0.0085305674 3.2920454 1.0412006e-38
-0.94015652 0.0096166413 3.6865382 4.8802629e-39
0.056066308 0.0038668939 4.4112082 1.4195599e-38
0.10593514 0.014532409 4.4127069 1.0137918e-38
1.07252 -0.0071369074 6.0374575 1.1701306e-38
1.0063818 0.0030762821 5.9742846 9.6766035e-39
1.0806855 0.017100642 6.0413828 1.2994569e-38
3.9248013 0.022820434 12.05355 7.2852919e-39
-1.4119213 0.012575041 3.1396058 9.6748056e-39
-1.440908 0.025911566 3.1014171 9.2177974e-39
-0.12590374 0.019755537 4.2755594 1.0859297e-38
1.2274244 0.034950037 6.2072244 1.0502404e-38
-1.2360446 0.034012623 3.3427765 1.2069363e-38
-1.2566522 0.042734761 3.3179646 1.1424712e-38
-1.128649 0.035990797 3.4756634 8.752478e-39
-1.1441367 0.030138504 3.4498789 1.0042869e-38
0.11983743 0.044559214 4.4246111 8.1063575e-39
0.092797883 0.03735619 4.4226065 7.1872907e-39
3.9384723 0.10206527 12.137757 7.836309e-39
-1.0298885 0.049046375 3.5811439 8.2900649e-39
0.80801845 0.087514214 5.3819456 7.0868386e-39
-0.95446813 0.052509103 3.6661224 7.0915161e-39
-0.60644853 0.052060757 3.7639568 1.3442946e-38
0.74097127 0.080827825 5.3189816 1.1879576e-38
-1.3529955 0.068553269 3.202539 6.817467e-39
-1.3216134 0.067841068 3.246104 8.7524864e-39
-1.3122165 0.058985632 3.2581022 9.3974957e-39
-1.3483254 0.063517876 3.21172 9.8599228e-39
-0.31911153 0.081292562 4.2033644 1.0308277e-38
0.75492507 0.099012591 5.3170433 1.3999357e-38
-0.34043452 0.079822212 4.1739097 1.0952211e-38
0.76629972 0.10725769 5.317337 6.9950059e-39
0.79125553 0.10866141 5.3646188 5.9869762e-39
2.5320542 0.21344735 11.174425 1.0051901e-38
3.7969697 0.24464922 12.018744 1.3926276e-38
3.9536111 0.24932925 12.145757 9.5912714e-39
-1.2328982 0.086535357 3.3455665 8.7517577e-39
-1.3167244 0.083185755 3.2642016 7.3713526e-39
-1.4006588 0.084280938 3.1511772 6.2639289e-39
-1.318285 0.074588403 3.2588749 5.8958638e-39
-1.1530451 0.086520381 3.4415178 7.8312504e-39
-1.0272112 0.087691747 3.5949373 5.3426858e-39
-0.95352465 0.090008527 3.6766486 5.1575743e-39
-0.98187405 0.092949629 3.6374273 8.9386825e-39
-1.220692 0.10266671 3.3769836 9.125236e-39
-1.1841424 0.1009041 3.410682 8.7557276e-39
-0.62419009 0.11148231 3.685492 1.0958333e-38
0.63967425 0.14256613 5.3232441 1.0491946e-38
0.41265678 0.13857666 5.0495811 1.2703569e-38
1.173207 0.17412654 6.1249924 1.0317291e-38
0.78901613 0.14271086 5.3627615 1.0960498e-38
-1.4554065 0.10066163 3.0799534 6.8196236e-39
-1.17032 0.10887132 3.4152811 9.9517526e-39
1.0125655 0.20646279 5.9497828 1.1054863e-38
1.158479 0.20440574 6.111124 1.151583e-38
3.0427494 0.36431292 11.467889 1.3558566e-38
-1.3817546 0.1253075 3.1640968 9.9532002e-39
-1.3999535 0.11699956 3.1571641 7.2802528e-39
-1.2279685 0.12736964 3.3472581 1.0229417e-38
-1.3222127 0.11802455 3.2341888 8.4769841e-39
2.4922757 0.39049661 11.127138 1.0050104e-38
3.3680124 0.42138454 11.801298 1.7063808e-38
3.6883888 0.46344692 12.004409 1.4095158e-38
-1.3895415 0.13092193 3.1546543 9.6773322e-39
-1.3317925 0.14340861 3.2190552 8.6606607e-39
-1.0244024 0.15122454 3.5841532 5.8033094e-39
1.0632496 0.25149044 6.0243587 6.7216714e-39
3.2591491 0.46677369 11.64132 1.4847151e-38
3.2885284 0.49154225 11.627043 1.6861376e-38
3.9618733 0.51442188 11.971532 9.0294334e-39
-1.1703925 0.15847547 3.4112256 8.4737247e-39
-1.2325779 0.15709262 3.3406029 6.079532e-39
-1.0423571 0.16411233 3.5664084 8.5680881e-39
1.1656302 0.28002706 6.1121435 1.1145246e-38
3.3727694 0.5592097 11.734813 1.4572361e-38
3.8202662 0.56461203 12.011973 8.6660837e-39
3.2632113 0.55633378 11.631429 1.5034062e-38
-1.3986337 0.16249789 3.14395 1.1060992e-38
-1.2968392 0.16805227 3.2680504 7.7394121e-39
-1.3038567 0.16955189 3.2535739 1.2929347e-39
0.80184704 0.28366616 5.2377915 1.0679226e-38
1.1551771 0.30519596 6.1115575 1.2992401e-38
3.3015497 0.59902972 11.693322 1.4940075e-38
3.6086924 0.57948899 11.88603 1.0973508e-38
3.6311445 0.59509224 11.865595 1.4756397e-38
3.8682489 0.62079728 12.049702 8.6664355e-39
-1.4021293 0.18703128 3.1440344 1.0320545e-38
-1.4226474 0.18160097 3.1156819 9.029809e-39
-1.3063968 0.18792157 3.2463715 1.1067866e-38
-1.1142081 0.19308902 3.4750817 7.4621049e-39
0.46880668 0.27022353 4.8566184 1.5010266e-38
1.2048751 0.35040268 6.1617537 1.2899485e-38
2.423193 0.60079914 11.092169 1.5770915e-38
-1.4260219 0.19869708 3.1115088 1.1337934e-38
-1.2816141 0.20162344 3.2795556 8.9368847e-39
-1.1700574 0.20751609 3.4183846 7.0926091e-39
3.3272655 0.69688755 11.683172 1.0421046e-38
3.8751574 0.72654724 12.033189 6.6298261e-39
-1.2848378 0.21681216 3.2897584 5.4359717e-39
-0.94004691 0.23738804 3.6852293 8.9390384e-39
3.3226676 0.76391721 11.665851 1.0605442e-38
3.7685597 0.78711599 11.997788 1.1332162e-38
-0.64543641 0.2460261 3.5289955 9.1090216e-39
-1.0175315 0.25629565 3.5882084 7.093321e-39
-0.51753694 0.26179126 3.6760159 8.6537943e-39
0.22757718 0.31187704 4.4407058 5.6254468e-39
0.56710881 0.3440114 4.8578792 7.461379e-39
0.79868901 0.36452806 5.120275 8.0116759e-39
0.8843773 0.37295258 5.2147794 1.2985202e-38
2.7219551 0.76840103 11.261671 1.0697273e-38
-1.0133698 0.26486722 3.5952432 8.2929432e-39
0.3503724 0.34106797 4.5909762 1.0130748e-38
0.15901969 0.32592487 4.3399572 7.4563442e-39
0.20136289 0.33260366 4.4064584 1.2613897e-38
-1.2354772 0.26816911 3.3246646 7.5524957e-39
-1.208328 0.2788752 3.3689063 5.4363192e-39
-0.064186387 0.32324314 4.0969796 8.6509245e-39
0.32909402 0.36895448 4.5641794 1.3539461e-38
0.38929743 0.37173623 4.6361871 1.2801533e-38
-1.3751409 0.27286854 3.1581473 1.2980172e-39
-1.1959237 0.29714555 3.3869128 7.2813234e-39
0.94756681 0.43599212 5.2978549 8.1921127e-39
-1.3965548 0.28824916 3.1344209 8.7546486e-39
-1.2781925 0.29246637 3.3132145 9.6729923e-39
-0.53529727 0.31760943 3.5263798 3.4065636e-39
-1.0880126 0.30870244 3.5092149 7.3724246e-39
-0.22547385 0.35500708 3.9011865 6.0715978e-39
-0.2269204 0.34445837 3.8960021 1.2337305e-38
0.56581867 0.54291475 6.1203575 9.5750458e-39
-1.2644349 0.31018332 3.2934973 7.2777263e-39
-0.56393427 0.33554748 3.492707 3.9593814e-39
-0.51804906 0.33024895 3.5436165 1.0037089e-38
-0.31037271 0.36205366 3.79652 1.2063963e-38
0.43588653 0.44401982 4.6883531 9.297024e-39
3.3356681 1.0947616 11.652988 1.0872266e-38
3.6198223 1.0689104 11.503592 7.837367e-39
-1.4305338 0.30327412 3.0998309 6.5426864e-39
-1.3934234 0.30691126 3.1368489 7.9256166e-39
-0.45412582 0.35161778 3.6230357 3.3129246e-39
-0.37810096 0.36820266 3.717093 6.1681179e-39
-0.047888394 0.4111295 4.110374 9.5732479e-39
0.94293326 0.52766156 5.2981491 1.1874536e-38
2.8706706 1.0942903 11.313588 1.3361905e-38
-1.2439011 0.34521636 3.3191679 9.3996551e-39
-1.0966234 0.35637543 3.4824369 6.2653652e-39
-0.44975594 0.37009683 3.6274371 2.5800427e-39
-0.1496342 0.41098571 3.9889965 8.5565596e-39
-0.082143784 0.4165048 4.0649433 1.3075594e-38
0.34813014 0.47702998 4.5778027 1.0219694e-38
-1.1500038 0.37972155 3.4253967 8.4751694e-39
-0.37661213 0.41024718 3.7145491 5.979398e-39
-0.96084535 0.38863233 3.6477242 7.0936755e-39
-0.22362076 0.42595476 3.8997111 9.5718046e-39
0.037657589 0.4498229 4.2116299 1.3537657e-38
0.15519272 0.4665055 4.3479819 1.3078484e-38
-1.0444465 0.40485072 3.5715041 7.9277704e-39
-1.0328751 0.4059813 3.5788515 7.7433749e-39
-0.25539228 0.43981826 3.8661573 1.1139856e-38
-0.36816129 0.41497254 3.7207513 1.2429505e-38
-1.1771649 0.40336195 3.4057074 6.3604377e-39
-1.2340343 0.39170545 3.3300765 8.9383112e-39
-0.32427502 0.45053613 3.7801342 1.1232766e-38
-1.3754389 0.38412774 3.1523731 7.0036631e-39
-1.3289706 0.39131173 3.2092311 6.8199907e-39
-1.157128 0.4211944 3.427844 7.3727917e-39
-0.32389694 0.46965235 3.7719131 1.0955089e-38
-0.56142336 0.44937775 3.4819117 7.3670128e-39
-1.352962 0.41219872 3.191462 4.147744e-39
-1.1116486 0.44106257 3.4628859 7.0029288e-39
-1.1939452 0.45031038 3.3616209 6.4483173e-39
-1.086019 0.4632315 3.5078433 4.1441412e-39
-0.42425358 0.48789221 3.6464384 1.1601545e-38
-0.52719301 0.46101284 3.5335317 8.8450295e-39
-1.4510254 0.41685718 3.0661676 1.1521246e-38
-1.3553867 0.42973638 3.1811316 1.106099e-38
-1.3503731 0.43491229 3.1852288 9.6751728e-39
-1.326229 0.43617594 3.2133625 1.0413821e-38
-1.2017242 0.45381141 3.3535118 9.0283432e-39
-1.3577871 0.44772285 3.1735733 9.5847876e-39
-1.2465686 0.46678442 3.3009655 7.0025715e-39
-1.234707 0.46259615 3.3155911 8.753201e-39
-0.24644838 0.95651835 6.8496604 6.9928297e-39
-1.399515 0.45534474 3.1237853 9.676249e-39
-1.0907135 0.5029273 3.4941101 3.4072852e-39
-1.031217 0.51733607 3.569016 6.4519032e-39
-0.99538743 0.52893263 3.5996232 5.3444935e-39
-0.93905801 0.52881235 3.6658919 6.2639092e-39
0.12135421 0.42138284 2.9434512 6.8087957e-39
-1.2229249 0.49639362 3.3328264 6.6341491e-39
-0.93125498 0.55348057 3.6722662 3.4062034e-39
-1.2769501 0.50645792 3.2671094 9.0312369e-39
-1.2173357 0.51222354 3.3430936 5.5285134e-39
-1.2278997 0.52183771 3.327369 8.3869535e-39
-1.1613257 0.53144485 3.3997536 9.8602759e-39
-1.4160398 0.49227881 3.1037309 7.5535775e-39
-1.3851854 0.50397253 3.1391048 1.0231232e-38
-1.3257095 0.51904464 3.2108347 1.0414893e-38
-1.3422402 0.51920193 3.1912215 7.7383387e-39
-1.3334509 0.51373738 3.2037833 7.9238047e-39
-1.1392401 0.548603 3.4249678 9.0250992e-39
-0.9942196 0.57279819 3.60462 4.5140069e-39
-0.98026669 0.59043205 3.6094911 5.1590148e-39
-0.41335493 0.58458388 3.5959728 6.1681053e-39
0.25983751 0.553469 3.4025266 4.509307e-39
-1.2929932 0.54984891 3.2416568 6.5426821e-39
-1.2600131 0.57980579 3.276572 7.0025785e-39
-1.1542988 0.61638927 3.4087038 6.906399e-39
-1.2526215 0.60345227 3.2854333 7.279171e-39
-1.3641398 0.58163965 3.1579223 9.1248815e-39
-1.1449497 0.62305266 3.4219327 5.6174594e-39
-0.42924029 0.65989566 3.6167822 6.7209161e-39
-1.4224385 0.58777577 3.0915797 7.1873383e-39
-1.1337144 0.64818287 3.4490793 8.940479e-39
-1.3675511 0.60571325 3.1507471 8.1100051e-39
-1.1164894 0.65904438 3.4562793 5.2508531e-39
-0.94456178 0.69545871 3.647295 4.420361e-39
-1.2653725 0.65445608 3.2758863 5.7129089e-39
-0.51678479 0.69649976 3.5180221 3.9597317e-39
-1.3580835 0.63328248 3.1588817 8.200407e-39
-1.2529117 0.67808634 3.2852194 1.0043948e-38
-1.0917267 0.72073764 3.4709928 8.9357832e-39
-0.43920609 0.74351203 3.6007698 6.2638994e-39
-0.3322773 0.77662319 3.7310598 5.893689e-39
-1.2427601 0.71864796 3.2912462 9.6776881e-39
-1.2587409 0.71033686 3.2757206 6.8199907e-39
-1.1513177 0.73122609 3.4076638 6.9085654e-39
-0.41182819 0.78835315 3.6346786 4.3263535e-39
-1.0045991 0.78934348 3.5755112 3.6842351e-39
-1.2254101 0.74466163 3.3111112 8.6606537e-39
-1.22993 0.7600702 3.3054342 7.0969335e-39
-1.2388802 0.76051366 3.2970233 9.3081881e-39
-1.1113127 0.79687643 3.4434907 5.9858846e-39
-0.99198562 0.81855512 3.5967307 6.6352183e-39
-1.2746083 0.75907862 3.2578487 5.9895028e-39
-1.2586566 0.77731752 3.2705159 7.8334098e-39
-1.2068003 0.80532682 3.3403864 7.9248725e-39
-1.3523036 0.78106618 3.1701386 9.9502995e-39
-1.275553 0.82005787 3.2668705 6.2678819e-39
-1.2734516 0.81347227 3.2716823 6.9150492e-39
-1.1939629 0.83122426 3.3532903 9.4940213e-39
-1.3483255 0.80097193 3.1781862 8.4766043e-39
-0.4343113 0.90290576 3.5941548 6.538687e-39
-0.37479791 0.9250263 3.6477757 4.3306779e-39
-1.0014616 0.92565024 3.562705 3.0417523e-39
-0.26090452 0.96631265 3.7277026 4.9717285e-39
-1.3442711 0.8398788 3.1716793 6.7288671e-39
-0.39790076 0.9439652 3.5695021 6.445418e-39
-0.37001327 0.94518214 3.6012442 5.8915254e-39
-1.3497288 0.84397703 3.1633248 8.5727783e-39
-1.2892728 0.86283165 3.2320287 9.9499352e-39
-0.99620688 0.94046581 3.541189 8.7539199e-39
-0.36387825 0.98189211 3.604377 6.3543e-39
-0.39394188 0.96954143 3.5724604 6.2631778e-39
-1.2087454 0.92001522 3.3280089 4.6076417e-39
-1.2360531 0.92005235 3.2976553 2.5829308e-39
-1.2016033 0.92549807 3.3349357 6.9132527e-39
-1.2149768 0.92264563 3.3214841 7.2813136e-39
-1.2707826 0.91197777 3.259691 7.8308748e-39
-1.2523848 0.92994225 3.2754765 3.7811194e-39
-1.2244084 0.92930841 3.3065655 4.8835055e-39
-1.2480952 0.92181152 3.2786069 7.2816765e-39
-1.0274308 0.96643937 3.4633844 4.7012793e-39
-0.67382842 0.97369039 3.4553475 6.2603079e-39
-0.34764564 1.0202428 3.6235931 5.8933246e-39
-0.49140677 0.98140335 3.4535227 7.8276336e-39
-1.0439334 1.0079457 3.4028547 6.5430199e-39
-0.53158027 1.0137787 3.4046183 8.3800843e-39
-1.1150092 1.0081588 3.3185863 6.9110779e-39
-1.206951 0.99842817 3.2117407 8.3880101e-39
-1.3867857 1.0009197 3.0094001 9.7705844e-39
-1.3354032 -1.0955263 3.2844522 8.2907852e-39
-1.3183261 -1.1138897 3.3026009 9.5815254e-39
-1.2970073 -1.1145793 3.3274584 1.0688239e-38
-1.2505434 -1.1441919 3.3988886 1.068643e-38
-0.75407833 -1.3280501 3.9852769 1.0961582e-38
-1.1588826 -1.1702286 3.498121 8.3811857e-39
-0.91238528 -1.2626941 3.8067834 1.0317639e-38
-1.2950331 -1.0977954 3.3286381 1.0320895e-38
-1.2036681 -1.127393 3.4409413 1.1698785e-38
-1.1995001 -1.1370668 3.44642 9.3020574e-39
-1.2703474 -1.1110952 3.365345 1.0044299e-38
-1.1909323 -1.1341488 3.4571991 1.1237813e-38
-1.0114988 -1.2066224 3.6720097 9.4871662e-39
-0.95180553 -1.2340908 3.7566445 8.8439688e-39
-0.8509509 -1.266372 3.864723 9.5786387e-39
-0.83068627 -1.2797337 3.8854897 1.2621823e-38
-1.2737396 -1.0961237 3.3662083 7.0014841e-39
-1.2909515 -1.086664 3.3381598 9.5826002e-39
-1.3522556 -1.0667598 3.2655432 1.0043598e-38
-1.0131649 -1.1968523 3.6764419 1.059351e-38
-1.1291243 -1.1420918 3.5307853 1.151692e-38
-0.91952664 -1.2216985 3.7769074 9.4868116e-39
-0.7944122 -1.2676259 3.9324172 1.2530348e-38
-0.75635809 -1.2992469 3.981169 1.2066852e-38
-0.7711879 -1.27677 3.9650738 5.8940659e-39
-1.3420528 -1.0414666 3.2644796 9.2123939e-39
-1.2475632 -1.0919732 3.3957498 5.7114641e-39
-1.2385627 -1.0871786 3.4026349 1.086974e-38
-0.95431095 -1.1949794 3.7424145 5.8962183e-39
-0.97334409 -1.1977097 3.7198405 1.1700221e-38
-0.8075912 -1.2542726 3.9166586 1.0316205e-38
-0.73420161 -1.2846649 4.0036378 1.2714742e-38
-0.73430389 -1.2731217 4.0051308 1.1236731e-38
-0.63077629 -1.3079549 4.1169748 9.8552326e-39
-0.60487044 -1.3320538 4.1511016 1.1238897e-38
-0.55369431 -1.3382354 4.2240644 8.0145556e-39
-1.2336856 -1.0809838 3.4185443 6.6316254e-39
-0.89184391 -1.2004567 3.8112531 1.133109e-38
-0.89906967 -1.2048846 3.8007379 1.0498444e-38
-0.57211399 -1.3165706 4.1938953 1.0687521e-38
-1.2335575 -1.0569152 3.4099274 1.069113e-38
-1.1168704 -1.1099858 3.5512855 1.1147056e-38
-1.1222932 -1.1017584 3.5334141 1.15162e-38
-1.4668525 -0.96836156 3.1141212 9.2109506e-39
-0.99151647 -1.1436336 3.6878705 1.1699512e-38
-0.87548232 -1.1939046 3.829587 9.8537963e-39
-0.73579109 -1.2399307 4.006918 1.2345595e-38
1.0361124 -1.8673773 6.1070228 7.0033016e-39
-1.0801104 -1.0944674 3.5902972 1.1792784e-38
-1.0501676 -1.1095355 3.6223612 9.3935356e-39
-1.0352131 -1.1091841 3.640538 8.9311169e-39
-1.0690665 -1.0939122 3.6005771 9.5786443e-39
-0.99813169 -1.1329714 3.6761916 1.0962306e-38
-0.83358175 -1.18277 3.8863406 1.1330724e-38
-0.90545142 -1.1671332 3.7978768 1.1700234e-38
-0.9213146 -1.1605257 3.7869544 1.225485e-38
-0.85841042 -1.1759406 3.8504286 1.0318734e-38
-0.80583113 -1.1994797 3.9112637 1.1514394e-38
-0.82318056 -1.1858021 3.8917012 9.2123841e-39
-0.55800438 -1.2848092 4.2097454 9.7680845e-39
-0.54673147 -1.2805637 4.2180743 6.5405073e-39
0.80081218 -1.7797148 5.8224802 9.1183948e-39
-1.460176 -0.94663286 3.1290793 9.8620808e-39
-1.2801392 -1.0155081 3.3444457 8.3840696e-39
-1.0975206 -1.0773464 3.5749872 9.5797205e-39
-0.88640189 -1.158272 3.8308737 1.2347404e-38
-0.86051875 -1.1665598 3.8642056 5.5277875e-39
0.72370946 -1.6972905 5.7176094 1.022584e-38
-1.1776772 -1.029308 3.4604161 7.092958e-39
-1.1859207 -1.0248892 3.4485526 9.9485072e-39
-1.2477344 -1.0071427 3.3788273 1.1333967e-38
-1.0442072 -1.0746559 3.6356719 7.2759144e-39
-0.56835383 -1.2481297 4.2040248 5.0664535e-39
-0.55503082 -1.2544409 4.2133312 8.8457666e-39
-0.54852033 -1.2435247 4.2205253 6.0795236e-39
1.0487067 -1.8010865 6.1115732 8.4769925e-39
2.4683969 -3.305923 11.227946 1.484824e-38
-1.4704506 -0.91548693 3.1255515 4.3306989e-39
-1.4300244 -0.92661452 3.1634862 1.0412382e-38
-1.2873169 -0.9709298 3.3363624 1.0227984e-38
-1.1748595 -1.0046718 3.4642787 1.1424365e-38
-1.1790633 -1.0118943 3.4550874 8.0131207e-39
-1.182512 -1.0150611 3.4603786 7.9205635e-39
-1.1942642 -1.0007856 3.4477706 5.5270785e-39
-1.162904 -1.0104514 3.4791274 1.0962666e-38
-0.86462086 -1.12872 3.8480158 6.2642806e-39
-0.80045581 -1.1516995 3.9321225 1.1979342e-38
-0.72656101 -1.1653205 4.0049682 1.1147048e-38
-1.1113802 -1.0418741 3.5460823 1.0131828e-38
4.0082288 -3.5129664 12.257135 1.4295062e-38
-1.1107808 -1.0098479 3.5375905 9.1183934e-39
-1.1539854 -1.0098237 3.489032 8.657774e-39
-0.78240764 -1.1346862 3.9359958 1.2347756e-38
-0.66409254 -1.1620985 4.0767794 1.2163727e-38
-0.71992737 -1.1580333 4.0194592 6.908208e-39
-0.64182377 -1.1780261 4.0990419 1.1605869e-38
-0.60350245 -1.1801388 4.1485844 4.4185659e-39
0.053819075 -1.2560368 4.4209647 6.8109776e-39
3.5308077 -3.3959403 12.01454 1.7522635e-38
3.4911313 -3.4195461 11.96998 1.4021377e-38
-1.2839456 -0.94791085 3.3349531 1.0595683e-38
-1.1101063 -1.0004865 3.5483754 1.1610554e-38
-0.92012423 -1.0668263 3.7776797 1.1700228e-38
-0.8641572 -1.0839138 3.8476946 6.448676e-39
-0.62951148 -1.164135 4.1201324 1.0131455e-38
-1.1739813 -0.9642995 3.4700439 1.0594963e-38
-1.3322717 -0.91793722 3.2731135 9.4918689e-39
-0.84166241 -1.0698632 3.8669767 8.6559649e-39
-0.74527991 -1.0938681 3.9713418 1.2069731e-38
-0.67106581 -1.1372935 4.0778623 7.5568229e-39
2.6170743 -3.1198595 11.318612 1.383156e-38
3.4235411 -3.2714322 11.885674 1.549469e-38
3.4693971 -3.2432723 11.850942 1.5309217e-38
-1.296694 -0.90605819 3.3285336 3.6864141e-39
-1.19506 -0.93694913 3.4374149 1.0135425e-38
-1.2772888 -0.91027635 3.3428001 9.2174358e-39
-1.2673607 -0.92358744 3.3566878 1.0413452e-38
-1.1291944 -0.96944731 3.5197825 9.487892e-39
-1.0859996 -0.97411364 3.5687823 1.0869389e-38
-0.95358574 -1.0215192 3.7311187 9.0272712e-39
-0.89942467 -1.0318024 3.7954636 1.1330365e-38
-0.89727116 -1.0480698 3.8074999 8.2886174e-39
-0.82102424 -1.0535383 3.8932476 9.6708343e-39
-0.72638381 -1.0930076 4.0010266 9.5782828e-39
-0.71095443 -1.1046019 4.0198207 9.8563102e-39
2.6829622 -3.0575786 11.362368 1.1615626e-38
-1.3016875 -0.89426517 3.3270359 1.0781523e-38
-1.2535591 -0.90452194 3.3870907 3.7785915e-39
-1.2502202 -0.91406769 3.3787296 8.8464771e-39
-1.1477585 -0.94170713 3.5008032 1.0962303e-38
-1.0918939 -0.95794213 3.564981 9.0254691e-39
-1.0086161 -0.97589868 3.6624 1.1608396e-38
-0.92576462 -1.0020659 3.7582643 1.1241414e-38
-0.82047892 -1.0394835 3.8871343 1.0502038e-38
-0.73943669 -1.0757604 3.981185 1.2623622e-38
-1.4395205 -0.82852125 3.1542354 1.0320897e-38
-1.4367507 -0.8390069 3.1488645 9.9517568e-39
-1.4087476 -0.84553665 3.1864967 1.013615e-38
-1.1545137 -0.92174542 3.4936643 1.0225103e-38
-0.97168106 -0.97119087 3.7119792 4.7902337e-39
-0.83770877 -1.0291311 3.8804052 1.1609478e-38
-0.73121172 -1.0590336 3.9894006 1.2346677e-38
-0.74359375 -1.053879 3.9818287 1.0040343e-38
