# .PCD v0.7 - Point Cloud Data file format
VERSION 0.7
FIELDS x y z rgb
SIZE 4 4 4 4
TYPE F F F F
COUNT 1 1 1 1
WIDTH 250
HEIGHT 1
VIEWPOINT 0 0 0 1 0 0 0
POINTS 250
DATA ascii
1.4935962 -2.8154414 10.646668 1.7891776e-38
-0.55697507 -1.0541993 3.6244438 1.1975732e-38
1.7497894 -2.7137418 10.804416 1.632337e-38
1.531565 -2.7389095 10.719678 9.0363278e-39
-0.96816725 -0.86275429 2.8785448 8.659939e-39
-1.1202626 -0.79106617 2.6007905 9.4003823e-39
1.4982967 -2.5237174 10.555517 1.7615186e-38
1.3595325 -2.5091462 10.444016 1.7798499e-38
1.6706241 -2.5687344 10.713432 1.6230813e-38
-0.89896357 -0.82205391 3.0076909 9.9499548e-39
2.0678463 -2.4409597 11.005114 8.5735308e-39
-0.57314277 -0.91482037 3.5987997 8.0116801e-39
-1.1392947 -0.69925058 2.5636008 1.03209e-38
-0.70793658 -0.84543341 3.3407519 8.9311155e-39
1.5899255 -2.1542616 10.63165 1.7244603e-38
-0.79612762 -0.73203295 3.1728504 1.1240691e-38
1.6334732 -2.054002 10.650904 1.696548e-38
-0.99574184 -0.63594526 2.8119996 1.0501329e-38
2.5280061 -2.0684104 11.390294 1.8722602e-38
-0.87103528 -0.6616649 3.0309882 1.1333612e-38
1.8170784 -1.9192474 10.822988 5.4348828e-39
2.0109947 -1.9036313 10.961577 1.143049e-38
-0.75502723 -0.65668637 3.2483046 6.7209315e-39
-0.74741411 -0.65785611 3.2628291 7.7347261e-39
2.139607 -1.8511481 11.141869 1.5114348e-38
-0.9692108 -0.57070881 2.8517668 8.4737429e-39
-0.74677265 -0.62185979 3.2503564 1.1608389e-38
-0.90100187 -0.57692379 2.9712567 1.1700226e-38
1.4406012 -1.6616977 10.544833 1.8537854e-38
2.241642 -1.757184 11.278858 4.5140588e-39
-1.0645677 -0.5151118 2.6847203 8.9365273e-39
-0.98366302 -0.51174521 2.82743 8.5655812e-39
-0.52145332 -0.61307389 3.6615386 7.4646216e-39
2.1419516 -1.5534476 11.16097 1.2080213e-38
0.086167477 -0.63712829 4.2578607 5.8882926e-39
-0.26114202 -0.57362926 3.8002644 8.1924589e-39
2.2038767 -1.4552466 11.244751 1.9273615e-38
-1.0277392 -0.44544867 2.7379949 1.0872273e-38
-1.0360404 -0.41556236 2.7238634 8.3826291e-39
-0.76611036 -0.4548198 3.2054868 8.1957029e-39
-1.0037972 -0.4082621 2.7769024 9.2127541e-39
-0.80282819 -0.44370833 3.1327703 8.1953497e-39
-1.0459318 -0.37577093 2.7053845 9.2134659e-39
-0.90456498 -0.40851286 2.9517245 9.3957006e-39
-0.68901199 -0.42678866 3.330894 1.2160845e-38
-1.070213 -0.32746568 2.6563337 7.5539376e-39
-0.73856688 -0.38899332 3.2485049 9.9459863e-39
-0.71409827 -0.38659966 3.3018942 1.1612716e-38
-0.95426184 -0.33801997 2.8617928 1.160911e-38
-0.73103607 -0.36192003 3.2609389 1.170058e-38
-0.72566229 -0.35907409 3.2688205 8.7492452e-39
3.1808128 -1.0087949 11.294371 1.4096227e-38
-0.78679526 -0.30150899 3.1470716 1.142364e-38
2.5310037 -0.83106279 10.646293 1.6494397e-38
-1.0280273 -0.27190021 2.7294095 1.1062788e-38
-0.75694209 -0.28033432 3.2098796 9.855227e-39
2.5298564 -0.72664905 10.645846 8.2860852e-39
-1.0484228 -0.24193239 2.6937432 8.9368804e-39
-0.84233904 -0.222285 3.0575376 9.583696e-39
1.4811515 -0.60459983 10.474643 1.1344093e-38
3.1637421 -0.55412835 11.275375 4.9756717e-39
-0.88837665 -0.19309333 2.9703691 7.462479e-39
-0.74570709 -0.1978884 3.2193677 5.9844469e-39
-0.0053713969 -0.22048201 4.0604029 8.1020303e-39
1.5757556 -0.49316254 10.554255 1.632373e-38
-1.0910882 -0.16599683 2.6102903 9.6762532e-39
-0.91373271 -0.15498447 2.9126248 8.7517717e-39
-1.1383401 -0.11876699 2.5150826 1.1518358e-38
-1.0850163 -0.11949582 2.6117921 9.1209144e-39
-0.94791925 -0.13278548 2.8553603 9.395688e-39
-0.87549824 -0.12736568 2.9787934 9.3045826e-39
0.074654803 -0.15004589 4.1128078 7.641764e-39
-0.91391981 -0.10934153 2.9167464 7.2780738e-39
-1.0976758 -0.079994686 2.5859375 1.124286e-38
3.0544174 -0.22071831 11.884157 1.3550988e-38
3.8320036 -0.20689496 12.570041 1.5863468e-38
-0.90112925 -0.063282855 2.9288476 1.1887135e-38
0.0096451845 -0.084320113 4.1364722 8.6537551e-39
-1.0861651 -0.056468636 2.6062071 1.1150301e-38
-0.30190808 -0.031150768 3.6404707 9.2941205e-39
0.13448444 -0.027452182 4.0841141 1.1334646e-38
1.7210451 -0.036465101 10.634429 1.2355352e-38
-1.0588906 -0.0152159 2.6521907 9.7670013e-39
-0.97302544 0.0034194211 2.8079901 1.0412009e-38
-0.9691239 0.012143294 2.8236063 8.661018e-39
-0.88241303 0.0024118631 2.954931 8.8432261e-39
0.15064763 0.012559563 4.0677099 8.570595e-39
0.1599225 0.049047135 4.0658426 1.1057342e-38
0.4095495 0.04999423 4.9533782 7.1811922e-39
-1.0984391 0.05401 2.5719159 9.5855051e-39
-0.11943802 0.070234545 3.8432276 1.0490513e-38
-0.83405465 0.058657933 3.0385938 9.3967698e-39
-0.92006856 0.13671555 2.8972447 5.1582988e-39
-1.0990975 0.13466713 2.5714502 1.023123e-38
-0.80070782 0.18183605 3.0872064 5.8955037e-39
-1.1213715 0.17377451 2.5166719 8.3829864e-39
-0.81334192 0.19398309 3.0663471 8.5680881e-39
3.0718188 0.7168709 11.880751 1.1803619e-38
-0.86288756 0.21986976 2.9701846 7.7383345e-39
2.2826326 0.76767993 10.881787 5.5252848e-39
-0.0002020877 0.29912633 3.9000797 1.3073072e-38
-0.88303101 0.28923464 2.9287481 1.0133619e-38
-0.0089807995 0.35572681 3.731199 9.2051857e-39
0.17968416 0.46934167 4.0621333 8.6509357e-39
-0.22103328 0.42900911 3.3272686 6.0719524e-39
-1.057014 0.4765588 2.6088374 9.5855023e-39
-0.87497133 0.53039473 2.9327393 7.3709981e-39
-0.97992575 0.72586375 2.7227015 7.1869656e-39
-0.94276464 0.75905347 2.7913971 7.2813262e-39
-0.96719623 0.75226998 2.7412536 8.4780673e-39
2.2668779 -3.2964373 11.361944 1.4663843e-38
1.7377192 -3.1271777 10.812733 1.5769837e-38
3.1605313 -3.4199333 12.068265 7.274827e-39
2.2617695 -3.2142334 11.356969 1.6231536e-38
2.9225421 -3.1669416 11.95715 1.3557137e-38
-0.84493649 -0.99611771 3.1142468 9.9474296e-39
-0.84461331 -0.89819109 3.0959983 1.1331809e-38
2.216428 -2.5452704 11.158204 1.1880318e-38
1.9258208 -2.4782012 10.939749 1.409699e-38
2.1219373 -2.3647645 11.103294 1.4841324e-38
-1.1375656 -0.65523684 2.5547073 8.9347239e-39
-1.0057316 -0.7008999 2.7930741 9.4886165e-39
-0.90905702 -0.72364688 2.9707367 8.4748177e-39
-0.64704752 -0.8027581 3.4410024 1.14222e-38
1.3855412 -2.1018801 10.45185 1.687438e-38
1.4649518 -2.1030905 10.527869 1.097423e-38
2.2811522 -2.1421802 11.219284 1.6503022e-38
-0.8700965 -0.70486623 3.0522912 1.1793503e-38
-1.0945164 -0.62250954 2.637037 7.8290938e-39
2.8600705 -2.1341634 11.856114 1.4201431e-38
-1.097614 -0.58555311 2.6231878 7.5525111e-39
1.8128643 -1.8541042 10.80783 1.5577445e-38
1.8957393 -1.8678741 10.901327 1.4011237e-38
2.4714482 -1.9446609 11.361134 1.1610182e-38
-0.9033007 -0.62255991 2.9750223 1.0686435e-38
-0.62298775 -0.65261602 3.472471 1.1790985e-38
3.3058593 -1.8671309 12.196567 1.4202863e-38
2.539623 -1.7307947 11.448593 1.5024994e-38
2.5060697 -1.7054567 11.409097 1.2626121e-38
-0.88639307 -0.54380399 2.9986286 9.3938873e-39
-0.90776712 -0.52826828 2.9714513 5.1590232e-39
-0.73116827 -0.56194073 3.2724123 1.0499519e-38
-1.0833768 -0.4549292 2.6434031 8.0142095e-39
-1.1585009 -0.43030909 2.5112832 9.9560757e-39
-1.1341044 -0.43411201 2.5494335 8.2007615e-39
-0.6806308 -0.51686633 3.3538024 8.8396331e-39
-1.1235288 -0.3971104 2.5737748 1.1242859e-38
-0.57854527 -0.48658565 3.5402958 7.0915301e-39
-1.0248375 -0.39977026 2.7442589 8.0142067e-39
-0.69994706 -0.45290938 3.325835 7.0940426e-39
-0.79892445 -0.40753323 3.1449771 1.216228e-38
-0.8865881 -0.37490493 2.9884031 6.3564734e-39
0.53333616 -0.51119727 5.4812884 1.1518718e-38
2.6413393 -0.87609607 10.787903 1.6600669e-38
-0.76404482 -0.30573913 3.1908956 1.1237443e-38
-0.88186419 -0.22106305 2.9702809 9.2123813e-39
1.5426437 -0.58663702 10.561117 1.3741168e-38
-0.97070605 -0.19862768 2.8207638 1.0319816e-38
-0.28714302 -0.21109059 3.7559783 1.1045847e-38
3.1406405 -0.49454671 11.30124 7.9262948e-39
-0.34443587 -0.18933699 3.6676424 6.0719608e-39
1.7013233 -0.45126617 10.681169 1.4755681e-38
0.003135741 -0.14457259 4.1031566 7.7343211e-39
0.4195911 -0.12426475 4.8609505 5.151438e-39
0.39082348 -0.074238837 4.8656082 8.8342227e-39
-0.28584453 -0.03715824 3.6477547 1.1045837e-38
0.36334577 -0.02848726 4.8745756 9.1118886e-39
-0.89453161 -0.013332833 2.9384933 8.1971504e-39
0.08931122 -0.0073950794 4.0696573 1.3455859e-38
-0.8994776 0.062660657 2.9198868 7.7379813e-39
-0.95310336 0.076803885 2.8274016 9.4875249e-39
-0.98085403 0.15196441 2.7743554 7.9256026e-39
-0.91702336 0.17372864 2.8936038 7.8323322e-39
1.8021677 0.75054431 10.644543 1.1792048e-38
-0.93347079 0.23706463 2.8642125 5.8051003e-39
-0.90353096 0.26508597 2.8969729 7.9230957e-39
0.14323272 0.36136693 4.0078182 8.6530909e-39
-0.88979059 0.31124786 2.9222021 8.3862178e-39
-0.94283694 0.32630822 2.8278308 1.1333248e-38
-0.30909932 0.34178066 3.1670363 1.1142004e-38
-0.024495376 0.45936477 3.6981983 9.8527173e-39
-1.0434283 0.38411412 2.6364338 8.6649851e-39
-0.90364814 0.40304706 2.8917649 7.4628168e-39
-0.82925153 0.45376793 3.0109372 4.6047564e-39
-1.0769056 0.5747003 2.5631847 7.2795325e-39
-0.73378313 0.70200026 3.1629131 6.818532e-39
-0.97577709 0.61868614 2.7461445 8.5706273e-39
-0.79940802 -0.98419768 3.1970642 1.1237811e-38
-0.5546236 -1.0679795 3.6285644 1.0406243e-38
-1.1167629 -0.77956194 2.6068726 9.5833429e-39
-0.90031111 -0.80928004 3.0085952 4.9742662e-39
-0.91870654 -0.7520414 2.9571254 1.0781522e-38
-0.62869716 -0.82984388 3.4805036 1.1515118e-38
1.6923006 -2.1473184 10.718639 1.7892133e-38
2.447413 -2.2857497 11.362473 1.7337874e-38
-0.89128602 -0.68133032 3.010747 7.3677415e-39
1.9214629 -1.9526675 10.848392 8.5619518e-39
-1.0705181 -0.57637 2.6708643 1.096267e-38
2.2136483 -1.8515034 11.22935 9.5768268e-39
3.5558524 -1.9683235 12.439895 1.5863472e-38
-0.28459275 -0.62793463 3.6150434 7.6367571e-39
-1.0972441 -0.45894834 2.6209452 1.0780081e-38
-0.75868988 -0.53638184 3.2274129 7.1819139e-39
-0.76874006 -0.51837367 3.2041118 9.3946062e-39
0.09942773 -0.58465719 4.2874928 1.0311525e-38
-1.0707114 -0.34731087 2.6587858 9.6740882e-39
-0.79110491 -0.39877045 3.1506557 1.0041426e-38
2.3925993 -0.74619281 10.692564 9.9441688e-39
0.35537696 -0.36195987 4.8212223 9.2037283e-39
-0.83512807 -0.220039 3.0656748 7.6461374e-39
0.37924504 -0.30819324 4.8335395 9.4792362e-39
-0.84721273 -0.11522736 3.0338614 7.83017e-39
-1.0189661 -0.075400412 2.723305 9.2131016e-39
-0.76185745 0.098680787 3.1577823 7.095123e-39
-0.94918072 0.079222016 2.8299489 9.3956852e-39
0.28574657 0.181817 4.7755756 1.0684287e-38
-0.40242279 0.24006364 3.2424321 1.4457094e-38
-0.34853557 0.23905136 3.5280931 9.754021e-39
3.2429016 0.7049216 11.179994 1.5942664e-38
-0.82377517 0.290555 3.0341058 7.7386974e-39
-0.74792153 0.338976 3.1768205 8.0167248e-39
-0.8889336 0.38628066 2.9064801 9.8570277e-39
-0.2385277 0.48172385 3.2883418 1.2337672e-38
-1.1185453 0.4200148 2.4994903 6.8167327e-39
-0.79320771 0.56329596 3.0866253 4.5132797e-39
-0.84320998 0.73283678 2.9651041 6.447576e-39
-0.81882662 0.89441091 2.9866505 4.9742508e-39
1.8946376 -2.1698058 10.88594 8.0127942e-39
-0.95037669 -0.64566916 2.9039772 9.3027917e-39
-1.0667646 -0.47467378 2.673758 1.0688959e-38
2.850096 -1.5388305 11.826159 1.6416296e-38
-0.78542787 -0.42742801 3.1600361 1.2161202e-38
-0.92436254 -0.30052283 2.927743 5.3451983e-39
-0.73031688 -0.31763482 3.2592711 3.8686249e-39
1.5911298 -0.875893 10.599964 1.6507764e-38
2.0071666 -0.69887108 10.578732 1.0313313e-38
-0.35049555 -0.047872495 3.6277664 3.1288963e-39
0.030732613 -0.0012747304 4.0675254 8.2878593e-39
-0.77653956 0.35608733 3.1035554 6.5423094e-39
-1.000453 0.34275165 2.7139809 1.4765874e-39
-0.96752948 -0.30500147 2.8447988 7.7358051e-39
1.7233562 0.26568571 10.595605 1.2355708e-38
1.6907617 0.70058137 10.66501 1.2540458e-38
-0.41205654 0.30477425 3.1055589 1.1690489e-38
-0.70288622 0.69993991 3.1901352 4.1423237e-39
-0.9355635 0.82884473 2.8042049 9.0308795e-39
2.5535922 -2.6797237 11.566893 1.3830478e-38
-0.56304806 -0.5057258 3.5410101 8.6566866e-39
-0.81766373 0.25158748 3.0656984 6.6319757e-39
-0.86402512 0.77329791 2.9469171 9.4882452e-39
