# .PCD v0.7 - Point Cloud Data file format
VERSION 0.7
FIELDS x y z rgb
SIZE 4 4 4 4
TYPE F F F F
COUNT 1 1 1 1
WIDTH 478
HEIGHT 1
VIEWPOINT 0 0 0 1 0 0 0
POINTS 478
DATA ascii
0.51748186 -0.35493442 1.6715381 1.2254854e-38
0.38896045 -0.34874922 1.6118433 7.9205593e-39
0.49913266 -0.34524569 1.6630969 1.1701663e-38
0.3519966 -0.34110576 1.5921538 1.2620015e-38
0.34849352 -0.34561425 1.5897874 1.2898044e-38
0.46000132 -0.33969942 1.6480719 1.3270434e-38
0.28854808 -0.3157942 1.5596222 1.3359748e-38
0.35327038 -0.29238027 1.5907274 1.0963024e-38
0.37727851 -0.28915459 1.604551 7.6439668e-39
0.30094755 -0.28267342 1.566813 8.5663001e-39
-0.42977974 -0.24755022 1.2009404 1.0872268e-38
-0.25937918 -0.24496748 1.2847184 1.1882816e-38
-0.2751798 -0.24335627 1.2779573 1.1238163e-38
-0.51327795 -0.24441139 1.1572233 1.1704198e-38
-0.23535123 -0.24061707 1.2974675 1.1607306e-38
0.30670264 -0.21947652 1.5661577 1.3083156e-38
-0.53612125 -0.23964371 1.147191 7.8355832e-39
-0.53351074 -0.23547439 1.1471505 1.1795668e-38
0.45808631 -0.21057673 1.6417891 1.1881377e-38
0.51407295 -0.20427996 1.6697121 1.1606221e-38
-0.31628984 -0.22692764 1.2556103 1.0038176e-38
-0.31289703 -0.20706822 1.2569034 1.2252313e-38
-0.54692501 -0.2062996 1.1387931 1.0686086e-38
-0.3554357 -0.20048571 1.235503 1.1605501e-38
-0.32485193 -0.20466489 1.2505925 1.0682824e-38
-0.30604237 -0.20561016 1.2607652 1.0407679e-38
-0.28811109 -0.19417994 1.2724166 1.1425809e-38
0.45888525 -0.17061044 1.6423678 1.1332528e-38
-0.53897226 -0.18949603 1.1439458 1.1612722e-38
-0.47848904 -0.17626999 1.172847 9.673728e-39
0.57713342 -0.14329132 1.6985724 1.1333248e-38
-0.55817044 -0.16041748 1.1325436 1.1151385e-38
-0.44687107 -0.15330859 1.1901265 1.0686427e-38
-0.38690817 -0.15564002 1.2218488 8.7550059e-39
-0.13116321 -0.14509985 1.3014631 6.0741202e-39
-0.49688345 -0.13667661 1.1664655 1.1240339e-38
-0.53733748 -0.14394113 1.1462679 1.1337214e-38
-0.3973287 -0.13504717 1.2149205 1.0962663e-38
-0.49284577 -0.11980374 1.1658179 1.225628e-38
-0.48765954 -0.11947892 1.1685333 1.106099e-38
-0.023800373 -0.10333124 1.3224362 5.612419e-39
0.032319162 -0.086592928 1.3538318 8.1953007e-39
0.21216515 -0.063503943 1.4497513 8.188503e-39
0.20743299 -0.066494212 1.4468766 1.3260344e-38
0.21005163 -0.06855426 1.4481179 9.5685578e-39
-0.38019258 -0.074648961 1.222888 7.0940454e-39
-0.40574774 -0.067748651 1.2087203 1.0136874e-38
-0.41194025 -0.05759057 1.2043636 1.2437435e-38
0.1258212 -0.049673427 1.3951144 1.1780534e-38
-0.44555843 -0.053032499 1.1880667 1.2715461e-38
-0.047413748 -0.056538604 1.6578164 7.4527386e-39
0.41250512 -0.03545706 1.6157291 1.0685712e-38
-0.50720239 -0.039870892 1.1577123 1.1149215e-38
-0.35502666 -0.042348746 1.2318538 1.1514761e-38
-0.38955349 -0.034868475 1.2150494 6.816018e-39
-0.38453999 -0.033853296 1.2182145 7.0918818e-39
-0.35241538 -0.034428071 1.2351813 8.845045e-39
-0.066433564 -0.022993822 1.2995899 1.224186e-38
-0.034433413 -0.028519772 1.6640449 5.4269515e-39
0.41392097 -0.014384671 1.6182185 1.1886062e-38
0.24615128 -0.0075497143 1.4889113 6.9928381e-39
-0.49952173 0.0067078709 1.1599905 1.0875874e-38
-0.44858867 0.010495318 1.1851444 6.6348652e-39
-0.52065885 0.01361916 1.1481606 1.2163369e-38
-0.056340378 0.024537368 1.0522549 1.0029166e-38
0.50818753 0.029904092 1.6610806 9.946345e-39
-0.4684777 0.027793331 1.1762481 8.0163717e-39
-0.43715048 0.034385253 1.1920401 5.526361e-39
-0.47340798 0.035666957 1.173303 6.7267161e-39
-0.41755253 0.035648394 1.2019584 1.0415615e-38
-0.50868744 0.042708311 1.1513449 1.1615981e-38
-0.41551194 0.04818764 1.202108 6.6334176e-39
-0.47754037 0.047230553 1.1690835 6.5419759e-39
-0.377231 0.046073928 1.2189262 6.4483145e-39
-0.12106873 0.053290013 1.2770332 8.8381954e-39
-0.45942792 0.061322626 1.1783426 1.0411642e-38
-0.48392031 0.060856558 1.1650392 1.3847547e-39
0.07277254 0.058747154 1.3178625 1.2155093e-38
-0.27184638 0.062846936 1.1446528 1.0771777e-38
-0.17329131 0.066114545 1.1964074 8.747792e-39
0.095440388 0.062308654 1.3300097 1.2707173e-38
0.11463428 0.061948162 1.3391054 1.2799733e-38
-0.21785036 0.071225926 1.1721728 4.1434154e-39
0.053770185 0.070357062 1.3087488 1.2706089e-38
0.054275256 0.073672764 1.3089254 6.6269408e-39
0.16119614 0.074427322 1.3627234 6.9024501e-39
0.18862252 0.068470784 1.3775682 1.2248358e-38
0.31987619 0.069786325 1.4413173 1.3259267e-38
-0.55639762 0.081466846 1.1269649 1.1428333e-38
-0.40350792 0.080735952 1.2063365 5.3419627e-39
-0.45179337 0.08598385 1.1839998 9.9535533e-39
-0.1887114 0.075104684 1.1862694 9.6665099e-39
-0.076989941 0.074709974 1.2437948 1.3722047e-38
0.089604825 0.077472806 1.3267561 1.3165629e-38
0.1297925 0.078309961 1.3472369 8.4719338e-39
-0.45816454 0.088159777 1.1784852 7.462835e-39
-0.25256866 0.08732409 1.1541589 1.1137681e-38
0.19532131 0.099924296 1.7528049 6.5387011e-39
-0.18322064 0.08912503 1.1890765 1.1232392e-38
0.48497236 0.093210995 1.6513855 1.1700943e-38
-0.48954141 0.10841788 1.1616718 8.387315e-39
-0.42106596 0.11367547 1.1992644 9.0323201e-39
-0.16407818 0.10130332 1.2004902 7.1829915e-39
0.043179579 0.10091609 1.3045173 1.3999354e-38
0.10998877 0.10624377 1.3364811 1.3907523e-38
0.21609019 0.10500587 1.390066 6.721649e-39
0.12378203 0.1050147 1.3437306 7.6418214e-39
-0.48832682 0.12257187 1.1618658 8.0185381e-39
-0.49883685 0.12049761 1.1561873 7.9256264e-39
-0.44981858 0.11990427 1.1817138 6.8192732e-39
0.10990021 0.11144917 1.3357784 1.197141e-38
-0.54942191 0.12897307 1.1319093 7.8330678e-39
-0.46932012 0.12317831 1.1713766 1.1151382e-38
-0.48866138 0.13881654 1.1610476 7.3717225e-39
-0.034149829 0.12883599 1.2445606 1.1416433e-38
0.51875144 0.13683571 1.6693274 8.9358057e-39
-0.50287604 0.15084566 1.1537933 1.0782599e-38
-0.4980312 0.14642362 1.1559321 1.1520527e-38
-0.42161825 0.14697498 1.1964129 9.0265369e-39
-0.097418636 0.12924862 1.1164041 9.1108138e-39
-0.50704014 0.15580213 1.1521245 1.0599291e-38
-0.47540832 0.15628727 1.1670731 1.0690397e-38
-0.46696755 0.15716362 1.1722659 1.0319448e-38
-0.05156352 0.14687738 1.2796938 9.4777985e-39
-0.48581594 0.17586517 1.1624933 7.3713652e-39
-0.47813603 0.19574162 1.1673999 5.1590092e-39
-0.54324234 0.19738115 1.1351281 1.0599287e-38
-0.4066461 0.20444463 1.202917 5.5267099e-39
-0.47271386 0.22964098 1.1683313 4.7941896e-39
-0.24966276 0.23191716 1.1461257 1.0314049e-38
-0.46029103 0.25634021 1.1515645 7.0965538e-39
-0.26038054 0.25120011 1.1287442 7.8272693e-39
-0.26486346 0.26558954 1.1259165 3.1342899e-39
-0.27513903 0.27033758 1.1209629 6.8163585e-39
0.11014136 0.22500125 1.0284671 1.0307932e-38
0.065464869 0.28150541 0.98896927 8.2864594e-39
0.074363463 0.28031898 0.99353695 8.287181e-39
0.21748656 0.28788781 1.0643083 9.0254705e-39
0.5113436 -0.35729992 1.6687126 1.1610914e-38
0.41565096 -0.33894971 1.6243173 9.1198284e-39
0.30982387 -0.30844721 1.5702319 1.2807659e-38
0.49795255 -0.30137399 1.6638972 9.5772038e-39
0.42581788 -0.29111943 1.6288962 1.1790619e-38
0.59459114 -0.26151988 1.7092533 1.2346322e-38
-0.25449091 -0.29017076 1.290463 8.2878985e-39
0.051633712 -0.26566505 1.3608055 5.3354719e-39
-0.0084485011 -0.25726727 1.3304904 5.5209464e-39
0.31686789 -0.24173599 1.5723352 1.1700583e-38
-0.43073562 -0.25296974 1.1999443 7.8301728e-39
-0.37450182 -0.24936628 1.2287149 1.0593158e-38
-0.26719785 -0.24333724 1.2813314 1.1605859e-38
0.21381783 -0.22299591 1.4564782 1.0585582e-38
0.46270567 -0.20853612 1.6444446 1.3174634e-38
-0.53069538 -0.23097199 1.1480229 9.6744553e-39
-0.44505379 -0.2261966 1.1939542 1.2438524e-38
-0.3738654 -0.22867656 1.229028 1.1699145e-38
-0.37307686 -0.22304042 1.2285242 8.932549e-39
0.42847204 -0.19930606 1.6308618 1.1608399e-38
-0.34018517 -0.21467578 1.2443577 1.1698789e-38
0.26157758 -0.19244342 1.4793971 9.2033668e-39
0.34791124 -0.19918314 1.588304 1.123853e-38
-0.47547773 -0.21489678 1.1758016 1.1792435e-38
-0.4880307 -0.21376666 1.1689224 1.1793879e-38
0.3320094 -0.19215475 1.5805494 1.3359394e-38
-0.39880806 -0.20179656 1.2147503 1.0315476e-38
0.32003763 -0.18184167 1.5749742 1.0775394e-38
-0.38723737 -0.19217238 1.2221645 1.1333611e-38
-0.46504942 -0.18371531 1.1835068 7.7372653e-39
-0.34153938 -0.18076658 1.2408906 9.302049e-39
0.41723228 -0.15896618 1.6221187 9.8534389e-39
-0.50019294 -0.172627 1.162895 9.0287145e-39
-0.50582981 -0.17676789 1.1603153 1.0780071e-38
-0.46077436 -0.15500696 1.1839247 1.0595686e-38
-0.15450785 -0.14489336 1.2898923 1.0123521e-38
-0.50923508 -0.14407253 1.1612848 1.0874443e-38
-0.41009837 -0.14709291 1.2101177 9.9514037e-39
0.61668158 -0.1049903 1.719478 1.1884984e-38
-0.37474024 -0.11756975 1.2258508 9.5782758e-39
0.54797089 -0.097760789 1.6842772 1.317607e-38
0.58109176 -0.094029687 1.7004962 1.0320175e-38
-0.3776446 -0.10588254 1.2243057 1.1239971e-38
-0.40497139 -0.097259827 1.2121381 4.1444929e-39
0.03767886 -0.086573087 1.3558836 1.0778194e-38
0.44136012 -0.080488808 1.6327462 1.2529623e-38
0.25279635 -0.073180556 1.4940054 7.086477e-39
-0.43763644 -0.08051993 1.1910379 1.0042148e-38
0.60153532 -0.064547747 1.710081 1.1423646e-38
-0.045459222 -0.076377392 1.6608962 5.9808441e-39
0.62394094 -0.053818014 1.7215943 9.5790143e-39
-0.49003392 -0.066686787 1.1661277 9.3049441e-39
0.46976867 -0.049358401 1.6450473 1.1422913e-38
-0.46492186 -0.051249214 1.1787817 1.0227982e-38
-0.393922 -0.050470591 1.2128879 1.059423e-38
-0.41958264 -0.049070586 1.2017858 1.1701317e-38
-0.34497833 -0.043706227 1.240068 8.3833423e-39
0.54320067 -0.032453917 1.6812705 9.2084227e-39
-0.36817798 -0.035157606 1.2270057 5.8944177e-39
-0.38874805 -0.030377926 1.2168673 1.0872268e-38
-0.063335381 -0.026731635 1.3019516 1.233226e-38
0.45189512 -0.020385286 1.6354926 1.1883888e-38
0.34453923 -0.0088493787 1.5107268 1.1053772e-38
0.52391261 -0.0068342034 1.6713822 9.9492289e-39
-0.070898853 -0.0094127376 1.2983614 1.2887235e-38
0.33902577 -0.0011188075 1.5043883 1.3351827e-38
0.59598202 -0.0018505064 1.7089347 1.4282062e-38
-0.48982933 -0.0033916375 1.1663288 5.3444837e-39
-0.4152573 -0.0062917373 1.203575 7.2784353e-39
-0.2429499 0.00439926 1.2128557 8.1877659e-39
-0.5006277 0.013812373 1.1590321 1.5402529e-38
-0.48524773 0.013476164 1.1656153 1.4115027e-38
-0.26593816 0.0088756727 1.2008898 1.3444015e-38
-0.41747075 0.024465892 1.2009712 6.9096542e-39
0.50266075 0.028533792 1.6593091 1.3543055e-38
0.52892107 0.030324783 1.6744866 9.2094933e-39
0.49509954 0.033184513 1.6544161 1.0135415e-38
0.57313704 0.031282187 1.6933608 1.0591352e-38
-0.48452923 0.034886915 1.1480677 2.0312186e-39
0.52798837 0.038332254 1.6760322 6.1688508e-39
-0.55650634 0.03752451 1.1308883 1.0507816e-38
0.28525665 0.049777016 1.4798107 8.3775774e-39
0.32807505 0.050426465 1.470852 1.0217517e-38
-0.49917108 0.056348 1.1570545 1.4111423e-38
-0.48511371 0.056237102 1.1627817 1.4849355e-38
-0.017954055 0.055031333 1.2890344 1.3904642e-38
-0.53258902 0.062347237 1.1414349 1.0599654e-38
-0.22285095 0.058983561 1.1689897 8.3797284e-39
0.055549558 0.059439451 1.3093389 5.4381689e-39
0.073797174 0.059893306 1.3181636 1.2798654e-38
-0.27278286 0.066702381 1.1445663 3.592394e-39
-0.17347026 0.066494569 1.1976202 8.8399891e-39
-0.19079934 0.067147352 1.1865731 1.1603704e-38
0.049453985 0.069243997 1.307124 6.6265765e-39
0.51295525 0.067971125 1.664518 1.2898763e-38
-0.51160502 0.07960473 1.150444 1.2165175e-38
-0.39403796 0.076345176 1.2118897 9.8570263e-39
0.0098795556 0.075549327 1.2883459 1.0775037e-38
0.19521788 0.073805287 1.3804796 9.0254649e-39
0.20630512 0.069313876 1.386995 7.9209138e-39
0.2159836 0.070105888 1.3906572 1.1050896e-38
0.26073772 0.071450099 1.4114269 7.1786713e-39
0.29324621 0.071455665 1.4302347 1.0589563e-38
0.24295075 0.086191222 1.774066 1.1694463e-38
-0.49733773 0.084421448 1.1586208 7.5564599e-39
-0.26757437 0.082181267 1.1458532 1.0403349e-38
0.57188821 0.080971472 1.6928781 1.0223651e-38
-0.50830507 0.094451591 1.1529902 9.5851407e-39
0.51477379 0.092688516 1.6646172 1.0317651e-38
0.54946256 0.087818049 1.6855714 7.5503447e-39
0.57162899 0.090891473 1.6934211 1.2624707e-38
-0.26169857 0.091464929 1.1483309 3.8664557e-39
0.37327093 0.088900439 1.467728 1.2796125e-38
-0.52988839 0.10566055 1.1415418 1.1239964e-38
-0.43500063 0.10609186 1.1886873 7.2780794e-39
-0.49473295 0.11158481 1.1587226 1.1889308e-38
-0.49678952 0.11579229 1.1583891 8.6620984e-39
-0.47331262 0.11302537 1.1700606 6.819618e-39
-0.51229191 0.11367493 1.1520938 1.1150667e-38
-0.23618715 0.10607682 1.16154 8.3790067e-39
-0.52856892 0.13575225 1.142198 8.4795106e-39
-0.50086582 0.13846025 1.1562767 8.7557444e-39
0.13056584 0.12452425 1.3266569 8.840345e-39
-0.48690706 0.14958803 1.1612115 1.0504935e-38
0.14442439 0.1187809 1.0917411 1.6026594e-38
-0.50729209 0.16088235 1.1530625 9.4896913e-39
-0.016372247 0.14534818 1.2627286 9.0186168e-39
0.61583477 0.14871077 1.7142216 1.0407316e-38
-0.40073642 0.19590676 1.2077456 8.1996615e-39
-0.42650446 0.20316193 1.19526 9.1259577e-39
-0.5248726 0.20814385 1.1419411 6.3568405e-39
-0.3979145 0.20537728 1.2084943 9.0341165e-39
-0.54363596 0.21806952 1.1343541 9.4007439e-39
-0.48382884 0.21967076 1.163343 9.5815212e-39
0.49157372 0.22385015 1.6530974 9.2152946e-39
-0.42913029 0.24893156 1.1690313 8.2029013e-39
0.23539783 0.18553963 1.0909948 1.2246198e-38
0.51471823 0.25671795 1.6397841 1.1795297e-38
0.50477153 0.26044378 1.6349883 1.234991e-38
0.64153129 0.25558496 1.7024815 1.253575e-38
-0.2676374 0.26156002 1.124828 8.1960574e-39
0.24586052 0.21806182 1.0964197 8.8331521e-39
0.29959983 0.21994795 1.1227994 7.6382089e-39
0.61237502 0.2757417 1.6877538 1.1061354e-38
0.15375312 0.25957742 1.0331439 8.9293078e-39
0.056884632 0.2782059 0.98437726 8.563042e-39
0.13200355 0.2860575 1.0215188 7.4610161e-39
0.38459089 -0.34879619 1.6086974 7.2780682e-39
0.49465093 -0.33637086 1.662824 1.3545217e-38
0.30102926 -0.30189931 1.5657855 1.022222e-38
0.33614737 -0.28466749 1.5856104 9.4925808e-39
0.032937441 -0.26578531 1.3521395 5.2447126e-39
0.072256997 -0.24948888 1.3712962 5.336181e-39
0.44260687 -0.24703057 1.6351825 1.1146699e-38
0.45852816 -0.24293736 1.6449782 1.0963028e-38
0.31817424 -0.24301131 1.5723981 1.2345238e-38
-0.28004247 -0.24144623 1.2745918 9.854148e-39
0.49777266 -0.20007756 1.663052 1.197682e-38
-0.48644051 -0.22056986 1.1702218 1.1146341e-38
0.47122848 -0.19403975 1.6512526 6.1710045e-39
-0.47894824 -0.2002489 1.1727455 1.0685728e-38
-0.45608407 -0.20238109 1.1878233 1.2069021e-38
-0.50999385 -0.19565158 1.1595509 7.8330594e-39
-0.49791455 -0.18767771 1.1639843 1.1427613e-38
-0.47531083 -0.17893447 1.1754144 1.243996e-38
0.52627337 -0.14702576 1.6760499 6.9045997e-39
0.56824774 -0.14457986 1.6971517 4.3299646e-39
-0.41869101 -0.15862203 1.2031002 1.0041069e-38
-0.38255897 -0.1543496 1.2233335 4.7913071e-39
-0.38759935 -0.15743558 1.2206872 8.0138437e-39
0.18451661 -0.12519479 1.4573541 1.289012e-38
-0.40489769 -0.12195025 1.2124501 9.672649e-39
-0.50048125 -0.1210378 1.1625319 1.0412022e-38
-0.25416246 -0.1517594 2.2102902 9.2941233e-39
-0.4256734 -0.079419181 1.1985822 1.1518358e-38
-0.051573522 -0.081031479 1.3074917 5.2458e-39
0.10628838 -0.074843138 1.3859084 9.3910147e-39
-0.40720719 -0.065646619 1.2082058 1.0227266e-38
-0.070035785 -0.058445178 1.2979099 1.2333699e-38
-0.41632059 -0.058138408 1.2009759 1.0408404e-38
-0.46284649 -0.057780541 1.1779243 1.1516192e-38
0.61082047 -0.043711573 1.7141511 9.9485128e-39
-0.3837814 -0.039292779 1.2195203 8.3847885e-39
-0.3934097 -0.044153035 1.2139132 6.9092842e-39
-0.35970512 -0.032689478 1.2316738 9.4914976e-39
-0.48840982 -0.020275194 1.1659425 1.0596043e-38
-0.36310619 -0.012880277 1.2300661 9.947424e-39
-0.50475502 0.002818105 1.1578742 1.0413091e-38
-0.030545078 0.0094388928 1.3171852 1.1873083e-38
0.11201252 0.010015147 1.3880076 1.3163824e-38
0.14030221 0.009958609 1.4037102 1.2611014e-38
0.14604777 0.007562337 1.4060955 7.9166048e-39
0.35108793 0.0092028007 1.509443 6.9942702e-39
-0.40688923 0.03208543 1.2060053 8.2000259e-39
-0.52858669 0.053701628 1.14319 8.1118099e-39
-0.4296965 0.043325331 1.1927747 8.0138437e-39
-0.40082508 0.04302419 1.2096173 6.9092955e-39
0.43937495 0.045628373 1.6269618 4.798982e-39
0.036305383 0.064123616 1.2998084 1.2613541e-38
0.041018795 0.070908144 1.4676551 1.2798653e-38
0.51299655 0.06799601 1.6646529 1.2898763e-38
-0.19919838 0.070904076 1.1821011 5.8951253e-39
0.070914246 0.075434096 1.3181432 1.0406616e-38
0.13868816 0.076033384 1.3530406 9.7630384e-39
0.20313673 0.076457001 1.3845547 8.289702e-39
0.31384078 0.068520352 1.440123 7.8283595e-39
-0.48320946 0.096230462 1.1638795 8.7546612e-39
-0.22346805 0.09110447 1.1694583 1.1323877e-38
-0.18791284 0.081649043 1.1861348 1.0404791e-38
-0.10213496 0.080427468 1.2298899 1.3164547e-38
0.035234269 0.082060412 1.3003682 1.3072716e-38
0.37429121 0.085319281 1.4678184 1.3443304e-38
0.022877159 0.10178067 1.2929062 9.6683246e-39
0.51484287 0.098904379 1.6647313 1.3177156e-38
-0.4544304 0.12077612 1.1784632 9.3071105e-39
0.1065469 0.112012 1.3341976 8.8403464e-39
-0.46683347 0.12944421 1.1710668 7.8316189e-39
-0.26850712 0.12378774 1.1267405 9.5703514e-39
-0.039186753 0.12208513 1.2426786 8.1027842e-39
0.068460532 0.16480844 2.0679526 1.5011348e-38
0.53836733 0.13401783 1.6778059 9.9477842e-39
0.62268555 0.12477367 1.7172744 7.0000421e-39
-0.52179414 0.16460471 1.1476119 8.7521122e-39
-0.48971856 0.17174308 1.1605885 1.0780796e-38
-0.46019956 0.18076399 1.1751987 9.2163512e-39
0.54040492 0.18382776 1.6766737 9.2120226e-39
-0.46595451 0.21546136 1.1725979 1.022653e-38
0.59280843 0.20176788 1.7032993 1.1978619e-38
-0.54136938 0.22460684 1.1341957 6.5419451e-39
0.55673599 0.20812184 1.6828178 1.2716182e-38
0.52436876 0.20914976 1.6682594 1.1425446e-38
0.60301274 0.20737772 1.707896 1.2162288e-38
0.53106254 0.22590691 1.674446 1.2438152e-38
-0.50303882 0.25318533 1.1316806 5.1633196e-39
-0.42502049 0.25006577 1.1700578 7.7437239e-39
-0.27916133 0.22998482 1.1339725 1.2154726e-38
-0.26799461 0.25047332 1.1245666 8.1946141e-39
-0.26350108 0.25516066 1.1272323 4.6987317e-39
0.4855088 0.25859264 1.6257533 1.0596754e-38
0.64157051 0.25536528 1.7025956 1.253575e-38
0.61680871 0.2907351 1.6891874 1.1994882e-38
0.031769108 0.27547333 0.97215062 1.0771783e-38
0.034792308 0.26972267 0.97325778 8.1946169e-39
0.32467434 0.26332873 1.1191816 8.2868167e-39
0.31141582 0.26966009 1.1116191 1.1876691e-38
0.023476264 -0.26616821 1.3483322 1.1413907e-38
0.042761151 -0.26257744 1.3841203 4.7837303e-39
-0.54492617 -0.20615688 1.1400558 9.857406e-39
-0.37439695 -0.1909983 1.2294278 1.1608031e-38
-0.4257507 -0.15702108 1.1992531 1.0409843e-38
-0.38343373 -0.14490107 1.2242577 1.096194e-38
-0.510894 -0.12176764 1.1549394 1.1148502e-38
-0.39817229 -0.12908743 1.2163678 6.2639162e-39
0.42960128 -0.099526741 1.6260438 1.2347391e-38
0.50035828 -0.097206548 1.6623785 1.0684269e-38
0.60078007 -0.097714007 1.7114353 1.1700231e-38
-0.41038689 -0.062561445 1.2050923 9.8577577e-39
-0.37069231 -0.072840996 1.2276244 4.2359669e-39
0.51007086 -0.031642046 1.6663384 1.2714386e-38
0.23807226 -0.011161896 1.4876558 8.8392772e-39
-0.47910723 0.0092767235 1.1690745 6.3557629e-39
-0.47750077 0.0017324197 1.1736268 9.2159925e-39
-0.42275241 0.013340798 1.1982888 9.1201815e-39
-0.49397242 0.026852224 1.1595924 1.5495083e-38
0.40970322 0.029392008 1.614536 9.8541452e-39
0.54601955 0.036398884 1.682448 7.4606574e-39
-0.48550305 0.051601555 1.1617187 1.5310692e-38
-0.48149037 0.071376204 1.1650163 7.9238229e-39
-0.224619 0.060790844 1.1669486 8.8399807e-39
0.11333683 0.054041572 0.98965013 1.2890847e-38
-0.18460797 0.056165334 1.1901665 1.270574e-38
-0.2575497 0.071344338 1.1504817 1.0218242e-38
-0.15802348 0.080494963 1.2044222 1.2520987e-38
0.13135608 0.073242441 1.3481346 6.1727968e-39
0.30451056 0.084747449 1.4334987 1.3074514e-38
0.0040265368 0.088550508 1.1447504 1.0774313e-38
0.098820008 0.10792585 1.3309989 1.3535865e-38
0.0059221741 0.12415107 1.6708441 1.0406609e-38
0.30765343 0.10338543 1.4350038 8.6566824e-39
-0.46254656 0.12154781 1.1749358 1.0320897e-38
-0.027714871 0.12018692 1.2484149 1.0496275e-38
0.61138582 0.21078713 1.7118313 1.1790981e-38
-0.2628186 0.2221843 1.1430466 8.1013338e-39
0.068022132 0.19068806 1.0072774 1.2153642e-38
-0.25423542 0.24608505 1.1320889 4.6987401e-39
0.23237708 0.20135769 1.0884666 9.0251132e-39
0.65240419 0.25359306 1.7097414 1.3272952e-38
0.51181996 0.25956818 1.6371657 7.2791626e-39
0.3032355 0.26591516 1.1080934 9.1147725e-39
-0.42534283 -0.15807983 1.1982914 1.0500959e-38
-0.40179816 -0.11101362 1.210184 1.0410932e-38
-0.42299333 -0.083593115 1.199608 1.1150666e-38
0.24923553 -0.064815283 1.4891646 1.2518819e-38
-0.4127095 -0.035544492 1.2048358 5.4359562e-39
0.056173578 -0.031805038 1.3103455 9.0290214e-39
-0.46831641 0.0067426753 1.1745509 8.2969144e-39
-0.4686217 0.027327983 1.1764158 8.2933145e-39
-0.46833229 0.066032134 1.1737659 1.068787e-38
-0.47481051 0.051314626 1.1718568 7.0043736e-39
-0.15504469 0.058427759 1.2060049 1.2613546e-38
0.083863668 0.059990048 1.3238715 1.2799733e-38
0.51455033 0.057617612 1.6649603 1.2345229e-38
-0.25410303 0.080119751 1.1537746 1.1413911e-38
-0.20554015 0.072036736 1.1803364 6.4475802e-39
-0.21298592 0.083057292 1.1759014 9.2102205e-39
0.075642049 0.068818577 1.3188763 8.6516405e-39
-0.015607041 0.091546386 1.661929 9.5768493e-39
0.22924006 0.074847452 1.394497 7.7368827e-39
-0.49366954 0.1148163 1.1554542 8.8454079e-39
-0.46245456 0.12142806 1.1747019 1.0320897e-38
0.22596438 0.094848044 1.3976135 9.8527075e-39
0.33656749 0.098658457 1.4493413 1.0406254e-38
0.11382981 0.16328205 1.0307212 1.0216803e-38
0.24050237 0.19530572 1.0940459 1.2614625e-38
0.11198018 0.21899231 1.0285702 1.0584513e-38
0.09318006 0.20926455 1.0188277 1.2338397e-38
0.24770115 0.2211688 1.0972264 1.2060365e-38
0.025765672 0.22819869 0.98488271 1.0034213e-38
0.29723212 0.22370756 1.1222645 9.4853711e-39
0.66460043 0.29725564 1.7093265 4.3371687e-39
0.32355422 0.26989731 1.1180969 8.9311029e-39
0.042630531 -0.27752435 1.3552434 1.2149672e-38
-0.40695989 -0.11295981 1.2071872 1.05024e-38
0.26979223 -0.088948444 1.4927232 1.0122808e-38
0.061846778 0.061211355 1.3133358 1.2360764e-38
-0.00059117947 0.080265261 1.2825079 1.2334792e-38
0.11867953 0.081684731 1.342434 1.2429871e-38
0.2150383 0.084025368 1.391063 1.2153277e-38
-0.4742465 0.20863643 1.1690799 1.0502031e-38
0.036133606 0.1556467 0.99074543 1.1137317e-38
0.055597361 0.16285056 1.0042485 8.8407191e-39
0.52184087 0.27561951 1.6452419 1.2072609e-38
0.59313154 0.28563374 1.6907755 1.1242843e-38
0.12455355 0.26631883 1.0187488 1.2061447e-38
0.024118202 -0.17081778 1.3450093 6.4425398e-39
0.23670943 -0.12952639 1.4824955 1.1780527e-38
0.23055722 0.16284266 1.0885291 1.123132e-38
0.65249044 0.28020072 1.7071617 1.5955696e-38
0.27984592 0.27589938 1.0914425 1.17845e-38
0.57862252 0.27775148 1.6796058 1.1335039e-38
